ply
format ascii 1.0
comment VCGLIB generated
element vertex 1674
property float x
property float y
property float z
element face 0
property list uchar int vertex_indices
end_header
-5.64666 -0.316128 -8.47031 
-5.37356 -0.951175 -8.40565 
-5.60095 0.057265 -8.39657 
-5.60794 -0.061396 -8.41532 
-5.64974 -0.20892 -8.58276 
-5.62254 -0.340356 -8.33156 
-5.49207 -0.755857 -8.79235 
-5.63131 -0.344419 -8.85031 
-5.45202 -0.805598 -8.30703 
-5.45577 -0.870021 -8.56387 
-5.35695 -0.971638 -8.81462 
-5.63242 -0.262827 -8.29537 
-5.47201 -0.846108 -8.69625 
-5.35773 -0.986068 -8.35668 
-5.60601 -0.459463 -8.40016 
-5.63791 -0.070866 -8.65905 
-5.6281 0.001335 -8.67814 
-5.62605 -0.13651 -8.47733 
-5.60134 -0.488697 -8.41523 
-5.56438 -0.601149 -8.85519 
-5.69119 -0.198685 -8.6985 
-5.57134 0.026433 -8.14515 
-5.44869 -0.844157 -8.60653 
-5.52831 -0.723818 -8.26975 
-5.58396 -0.071492 -8.07958 
-5.54109 -0.698792 -8.52405 
-5.42768 -0.869183 -8.86242 
-5.42315 -0.909335 -8.4955 
-5.65731 -0.105527 -8.79535 
-5.46394 -0.824156 -8.86792 
-5.63259 -0.243357 -8.35016 
-5.59486 0.056358 -8.33383 
-5.56867 -0.656474 -8.60831 
-5.45395 -0.854159 -8.31391 
-5.61351 -0.37155 -8.50427 
-5.61094 -0.300792 -8.93093 
-5.57268 -0.615747 -8.7941 
-5.56514 -0.66158 -8.78644 
-5.59061 -0.506603 -8.82957 
-5.63671 -0.21633 -8.61402 
-5.42785 -0.861989 -8.96005 
-5.64687 -0.262209 -8.6608 
-5.59436 -0.042921 -8.28702 
-5.63396 -0.15237 -8.24964 
-5.62663 -0.416176 -8.46957 
-5.49633 -0.766164 -8.23619 
-5.59304 -0.025419 -8.25259 
-5.59861 -0.570471 -8.59435 
-5.52639 -0.73911 -8.83344 
-5.63765 -0.288703 -8.29752 
-5.44273 -0.89833 -8.29625 
-5.61453 0.007959 -8.33827 
-5.59824 -0.477991 -8.29818 
-5.66521 -0.076257 -8.72443 
-5.59946 -0.081512 -8.23415 
-5.58359 -0.625069 -8.59445 
-5.51781 -0.770517 -8.63517 
-5.54224 -0.577568 -8.17248 
-5.3817 -0.960041 -8.48793 
-5.52997 -0.724667 -8.39676 
-5.62827 -0.070841 -8.88751 
-5.53753 -0.723843 -8.50584 
-5.43711 -0.851826 -8.20586 
-5.62165 -0.587006 -8.64918 
-5.3874 -0.938977 -8.51179 
-5.38552 -0.942897 -8.79301 
-5.64178 -0.307972 -8.77892 
-5.50873 -0.75923 -8.27792 
-5.42957 -0.92893 -8.49997 
-5.59901 0.073521 -8.28697 
-5.60765 -0.469647 -8.35048 
-5.58007 -0.486596 -8.84978 
-5.46587 -0.824738 -8.21574 
-5.56885 0.060038 -8.19338 
-5.63407 -0.054052 -8.81437 
-5.59281 -0.034693 -8.27927 
-5.52019 -0.716183 -8.23352 
-5.60681 -0.022439 -8.38849 
-5.60064 -0.516595 -8.44211 
-5.64499 -0.243496 -8.38742 
-5.63102 -0.482758 -8.76948 
-5.62748 -0.043044 -8.50718 
-5.57369 -0.505716 -8.23378 
-5.36707 -0.953435 -8.13423 
-5.59235 -0.143788 -8.15264 
-5.6267 -0.479148 -8.58707 
-5.51506 -0.685324 -8.9572 
-5.61442 -0.371365 -8.22415 
-5.64588 -0.424591 -8.70458 
-5.63498 -0.353166 -8.81492 
-5.62949 -0.371704 -8.83163 
-5.63362 -0.140654 -8.30595 
-5.62884 -0.107185 -8.43441 
-5.60118 -0.614592 -8.75012 
-5.60038 0.128665 -8.65949 
-5.57981 -0.549972 -8.51456 
-5.66429 -0.098056 -8.77759 
-5.54651 -0.552377 -8.16072 
-5.46456 -0.815011 -8.75078 
-5.41168 -0.919474 -8.27558 
-5.60098 -0.521444 -8.69595 
-5.55183 -0.697996 -8.40938 
-5.41478 -0.868867 -8.9283 
-5.56176 -0.551397 -8.87409 
-5.36437 -0.985421 -8.66781 
-5.41053 -0.9234 -8.34249 
-5.63796 -0.244369 -8.72331 
-5.62685 -0.355091 -8.87759 
-5.62256 -0.334212 -8.55352 
-5.61729 -0.595301 -8.7344 
-5.59039 -0.280243 -8.12637 
-5.64043 -0.306631 -8.4888 
-5.63646 -0.334354 -8.62303 
-5.57994 -0.635583 -8.76226 
-5.5119 -0.679974 -8.20554 
-5.60638 -0.440548 -8.29695 
-5.62363 -0.153931 -8.47676 
-5.59947 -0.519596 -8.7115 
-5.52208 -0.699447 -8.89824 
-5.61641 -0.337122 -8.20713 
-5.5987 -0.379325 -8.17332 
-5.4293 -0.923528 -8.52457 
-5.68039 -0.160514 -8.78512 
-5.66548 -0.143241 -8.69581 
-5.60655 -0.291908 -8.16367 
-5.64118 -0.234691 -8.8338 
-5.59258 0.109898 -8.85942 
-5.56596 -0.534865 -8.85896 
-5.44194 -0.850013 -8.45133 
-5.59231 -0.471113 -8.83206 
-5.54503 -0.706753 -8.4972 
-5.59437 0.100638 -8.47919 
-5.62154 -0.489094 -8.58556 
-5.57775 -0.54738 -8.82749 
-5.36507 -0.960178 -8.18795 
-5.42024 -0.916073 -8.29652 
-5.6226 -0.502125 -8.69111 
-5.63156 -0.236849 -8.26978 
-5.44741 -0.860336 -8.50204 
-5.52938 -0.625761 -8.22445 
-5.61861 -0.216511 -8.20656 
-5.61861 -0.470269 -8.47847 
-5.6207 0.009431 -8.35236 
-5.49158 -0.734021 -8.95951 
-5.42679 -0.858165 -8.90991 
-5.59723 0.109005 -8.39982 
-5.51082 -0.688828 -8.23373 
-5.4398 -0.900623 -8.52302 
-5.63235 -0.25118 -8.75005 
-5.55429 -0.659868 -8.54236 
-5.47513 -0.787139 -8.63115 
-5.60214 -0.008913 -8.3418 
-5.60565 -0.498095 -8.81917 
-5.38737 -0.912732 -8.14471 
-5.63522 -0.326503 -8.87891 
-5.4285 -0.895063 -8.69636 
-5.46091 -0.851769 -8.83984 
-5.68068 -0.164676 -8.71425 
-5.58684 -0.071603 -8.14358 
-5.63566 -0.426093 -8.58206 
-5.61442 -0.43758 -8.4203 
-5.629 -0.297532 -8.45908 
-5.65154 -0.351528 -8.60445 
-5.38773 -0.949462 -8.63235 
-5.57757 -0.44415 -8.89713 
-5.56095 0.046161 -8.07108 
-5.40959 -0.905805 -8.82309 
-5.61353 0.001939 -8.62428 
-5.53321 -0.743068 -8.61867 
-5.46582 -0.815952 -8.23296 
-5.38837 -0.949041 -8.70725 
-5.50339 -0.78321 -8.50469 
-5.46546 -0.8067 -8.6868 
-5.60319 0.10107 -8.75826 
-5.58705 0.095547 -8.28348 
-5.45523 -0.8384 -8.27872 
-5.39044 -0.923915 -8.85029 
-5.63238 -0.371714 -8.49166 
-5.58734 -0.318413 -8.12778 
-5.61316 -0.335342 -8.18779 
-5.62016 -0.20802 -8.18808 
-5.46851 -0.799619 -8.21638 
-5.53301 -0.650974 -8.95903 
-5.63318 -0.037294 -8.63232 
-5.63687 -0.217239 -8.56675 
-5.44296 -0.894877 -8.78808 
-5.67627 -0.086952 -8.73898 
-5.47111 -0.865595 -8.70669 
-5.55268 -0.613821 -8.44985 
-5.45964 -0.809381 -8.63088 
-5.61948 -0.343359 -8.21499 
-5.58388 -0.542521 -8.39775 
-5.5344 -0.705805 -8.45276 
-5.59158 -0.606201 -8.60266 
-5.46745 -0.797626 -8.39755 
-5.53139 -0.701775 -8.87138 
-5.68589 -0.19035 -8.75286 
-5.62324 -0.48065 -8.65811 
-5.48315 -0.763241 -8.82365 
-5.6406 -0.370003 -8.58514 
-5.44556 -0.905928 -8.6405 
-5.61438 -0.26759 -8.19978 
-5.63838 -0.182301 -8.44056 
-5.64407 -0.064735 -8.57007 
-5.58737 -0.100095 -8.09636 
-5.61489 -0.090274 -8.36195 
-5.64053 -0.234759 -8.86049 
-5.48299 -0.770977 -8.69614 
-5.43371 -0.903533 -8.3323 
-5.58112 -0.560345 -8.40557 
-5.40038 -0.944363 -8.4869 
-5.42794 -0.887683 -8.60552 
-5.50836 -0.748736 -8.7786 
-5.63037 -0.126409 -8.90806 
-5.597 0.117971 -8.46945 
-5.63652 -0.116906 -8.83213 
-5.59195 -0.189172 -8.15192 
-5.47058 -0.850415 -8.76027 
-5.58975 -0.596815 -8.59819 
-5.61047 -0.070471 -8.43309 
-5.47423 -0.788053 -8.38805 
-5.51659 -0.766081 -8.3828 
-5.61191 -0.47066 -8.49112 
-5.48516 -0.734853 -8.92282 
-5.63605 -0.026787 -8.56008 
-5.44953 -0.825891 -8.59462 
-5.62393 -0.287166 -8.90012 
-5.49133 -0.75124 -8.75053 
-5.57958 0.101878 -8.21651 
-5.63876 -0.171028 -8.35097 
-5.60039 0.037752 -8.85007 
-5.59955 0.110239 -8.81412 
-5.41901 -0.919516 -8.35967 
-5.60375 0.055455 -8.58653 
-5.60991 -0.071125 -8.4064 
-5.59862 -0.053531 -8.24344 
-5.538 -0.715643 -8.5182 
-5.61916 -0.007899 -8.83281 
-5.53356 -0.73141 -8.57187 
-5.61477 -0.611455 -8.64427 
-5.35378 -0.98858 -8.24301 
-5.56376 -0.598033 -8.33435 
-5.62341 -0.134988 -8.49407 
-5.5781 -0.449669 -8.89491 
-5.62125 -0.326201 -8.511 
-5.63194 -0.474213 -8.74573 
-5.63664 -0.189512 -8.41507 
-5.64262 -0.301543 -8.83455 
-5.62634 -0.044724 -8.90242 
-5.63744 -0.153418 -8.9018 
-5.63919 -0.116755 -8.89775 
-5.66359 -0.196632 -8.78296 
-5.62722 -0.426604 -8.82672 
-5.47575 -0.752919 -8.94119 
-5.42078 -0.92321 -8.50988 
-5.64016 -0.152563 -8.86517 
-5.49671 -0.76489 -8.36586 
-5.59636 0.121128 -8.64087 
-5.6161 -0.587103 -8.66746 
-5.60751 0.0369 -8.47111 
-5.48204 -0.776731 -8.34212 
-5.58664 -0.506464 -8.51096 
-5.601 0.072486 -8.46083 
-5.60534 0.048454 -8.58492 
-5.59724 -0.539094 -8.48374 
-5.62868 -0.524376 -8.62465 
-5.39138 -0.945162 -8.47937 
-5.61678 -0.102038 -8.28852 
-5.60401 0.10411 -8.64095 
-5.59149 0.028789 -8.26079 
-5.62291 -0.374797 -8.25942 
-5.4315 -0.871733 -8.48726 
-5.55242 -0.632245 -8.47714 
-5.64523 -0.198956 -8.35186 
-5.42385 -0.886708 -8.47784 
-5.47625 -0.752697 -8.1705 
-5.46769 -0.807577 -8.93149 
-5.42404 -0.888925 -8.42348 
-5.62741 -0.31605 -8.49601 
-5.61033 -0.479261 -8.82067 
-5.61113 0.009503 -8.79647 
-5.6237 -0.217854 -8.21683 
-5.47456 -0.84437 -8.38686 
-5.64152 -0.22965 -8.42819 
-5.53439 -0.70227 -8.44207 
-5.53884 -0.624551 -8.28592 
-5.47027 -0.787807 -8.87761 
-5.47542 -0.751996 -8.97149 
-5.59587 0.050327 -8.35403 
-5.5831 -0.579059 -8.45136 
-5.6475 -0.444552 -8.65056 
-5.56718 -0.653339 -8.73066 
-5.45919 -0.881441 -8.66097 
-5.6223 -0.215826 -8.28601 
-5.63385 -0.251245 -8.35011 
-5.55086 -0.532604 -8.12951 
-5.58704 -0.438534 -8.86305 
-5.53391 -0.634744 -8.95576 
-5.63261 -0.315531 -8.8024 
-5.50892 -0.75133 -8.31445 
-5.55232 -0.588943 -8.89577 
-5.37442 -0.974324 -8.73043 
-5.59044 0.109668 -8.8776 
-5.61924 -0.571951 -8.64951 
-5.55304 -0.541376 -8.16181 
-5.5718 -0.524561 -8.94902 
-5.53998 -0.645027 -8.92405 
-5.58693 -0.369684 -8.92351 
-5.61545 -0.613546 -8.65819 
-5.53671 -0.724266 -8.47699 
-5.64231 -0.273903 -8.6972 
-5.62678 -0.315879 -8.3139 
-5.46484 -0.86156 -8.36029 
-5.63149 -0.308422 -8.85747 
-5.58769 -0.360616 -8.14236 
-5.41748 -0.906674 -8.80566 
-5.46692 -0.807738 -8.60473 
-5.6076 0.044804 -8.31526 
-5.63186 -0.388835 -8.4684 
-5.57672 -0.025474 -8.12597 
-5.60191 0.02872 -8.29675 
-5.6418 -0.348749 -8.62255 
-5.45989 -0.840489 -8.43843 
-5.63592 -0.071793 -8.90437 
-5.53871 -0.717408 -8.61444 
-5.61965 -0.442728 -8.82315 
-5.61737 -0.261173 -8.20783 
-5.63639 -0.415646 -8.62324 
-5.64193 -0.083432 -8.795 
-5.48131 -0.742291 -8.94138 
-5.56077 -0.654982 -8.82774 
-5.36844 -0.97389 -8.59605 
-5.47684 -0.781951 -8.1978 
-5.48091 -0.770367 -8.85921 
-5.47003 -0.821534 -8.50817 
-5.65335 -0.251153 -8.58123 
-5.59753 -0.461499 -8.23373 
-5.41743 -0.896731 -8.57862 
-5.45976 -0.798981 -8.14852 
-5.60945 -0.098895 -8.28802 
-5.59215 -0.489149 -8.92334 
-5.60972 -0.498214 -8.79521 
-5.6365 -0.207849 -8.3608 
-5.55508 -0.660564 -8.70472 
-5.53 -0.744159 -8.51483 
-5.65918 -0.229805 -8.74174 
-5.62842 -0.026244 -8.64149 
-5.36669 -0.961096 -8.80522 
-5.56044 -0.674983 -8.77807 
-5.63719 -0.343702 -8.38793 
-5.59594 0.083144 -8.28112 
-5.66516 -0.160799 -8.65376 
-5.61858 -0.352285 -8.92111 
-5.59895 -0.080901 -8.24302 
-5.5836 -0.606817 -8.82341 
-5.62659 -0.207565 -8.48718 
-5.42725 -0.91615 -8.65049 
-5.63657 -0.24392 -8.7781 
-5.45272 -0.832781 -8.49573 
-5.5601 -0.543877 -8.23283 
-5.65647 -0.088996 -8.6507 
-5.61192 -0.443275 -8.41448 
-5.67633 -0.143095 -8.66061 
-5.68438 -0.190136 -8.679 
-5.54731 -0.624901 -8.29683 
-5.35042 -0.985866 -8.2077 
-5.57518 -0.510381 -8.19814 
-5.62364 -0.560033 -8.63237 
-5.56366 -0.542992 -8.26031 
-5.64282 -0.35758 -8.78255 
-5.53632 -0.642711 -8.94886 
-5.46471 -0.824553 -8.85981 
-5.53609 -0.661721 -8.45108 
-5.38258 -0.94359 -8.40613 
-5.57024 -0.561076 -8.53714 
-5.5052 -0.700059 -8.22198 
-5.45941 -0.854543 -8.78046 
-5.63193 -0.287358 -8.83901 
-5.60045 0.047082 -8.37943 
-5.58721 0.114641 -8.37776 
-5.58963 -0.278974 -8.14273 
-5.64648 -0.379884 -8.60514 
-5.60913 0.026303 -8.416 
-5.62039 -0.143548 -8.91413 
-5.59485 0.135065 -8.63332 
-5.63779 -0.253087 -8.83138 
-5.55548 0.064195 -8.07073 
-5.64692 -0.07211 -8.76855 
-5.56397 -0.461667 -8.1247 
-5.63282 -0.148953 -8.32833 
-5.63834 -0.289208 -8.61577 
-5.50982 -0.760033 -8.63339 
-5.62442 -0.432521 -8.82037 
-5.61298 -0.432697 -8.49193 
-5.58407 -0.334648 -8.10593 
-5.40533 -0.911943 -8.45388 
-5.51436 -0.76335 -8.42388 
-5.55557 -0.620276 -8.4264 
-5.57323 0.092216 -8.20634 
-5.63792 -0.080388 -8.89597 
-5.66489 -0.080693 -8.69577 
-5.3834 -0.961684 -8.54061 
-5.48444 -0.735763 -8.9497 
-5.62838 -0.034829 -8.50504 
-5.53484 -0.644097 -8.3694 
-5.53043 -0.726079 -8.69706 
-5.63556 -0.072565 -8.65127 
-5.6236 -0.282423 -8.23196 
-5.57325 -0.5974 -8.56981 
-5.38742 -0.940545 -8.22229 
-5.47085 -0.777401 -8.90465 
-5.60334 0.066311 -8.75802 
-5.68612 -0.164685 -8.74745 
-5.60156 -0.033864 -8.3413 
-5.40876 -0.913914 -8.69592 
-5.52412 -0.713756 -8.83321 
-5.65295 -0.425293 -8.69619 
-5.63269 -0.184995 -8.41687 
-5.52713 -0.688292 -8.93222 
-5.46394 -0.833351 -8.74133 
-5.64492 -0.056064 -8.68998 
-5.63595 -0.062469 -8.6049 
-5.63555 -0.025554 -8.67784 
-5.47795 -0.789469 -8.4792 
-5.63295 -0.020165 -8.59502 
-5.62975 -0.351945 -8.8413 
-5.44136 -0.871506 -8.24191 
-5.455 -0.851452 -8.26082 
-5.62025 -0.38961 -8.25208 
-5.53179 -0.735711 -8.62384 
-5.46519 -0.80671 -8.43233 
-5.5991 0.080184 -8.76832 
-5.44963 -0.878536 -8.5232 
-5.56659 0.029321 -8.11619 
-5.61386 -0.515048 -8.7561 
-5.59599 0.076555 -8.80714 
-5.62498 -0.325738 -8.52392 
-5.63972 -0.145269 -8.33346 
-5.51849 -0.760808 -8.44352 
-5.56866 0.100979 -8.17502 
-5.39013 -0.951912 -8.54169 
-5.4553 -0.824762 -8.43251 
-5.62711 -0.480126 -8.71526 
-5.60979 -0.016477 -8.89596 
-5.54565 -0.696228 -8.45112 
-5.62104 -0.123679 -8.9147 
-5.41915 -0.904437 -8.42112 
-5.60001 -0.062505 -8.32403 
-5.61471 0.046158 -8.78475 
-5.51181 -0.754857 -8.52835 
-5.62828 -0.415555 -8.48681 
-5.43047 -0.843127 -8.17957 
-5.36412 -0.971421 -8.42394 
-5.62044 0.019986 -8.59652 
-5.62154 -0.265263 -8.3514 
-5.63859 -0.341924 -8.63138 
-5.61414 -0.591607 -8.74431 
-5.45302 -0.83307 -8.45956 
-5.59501 0.128651 -8.63289 
-5.51631 -0.769699 -8.58813 
-5.58889 -0.496507 -8.94554 
-5.39131 -0.914862 -8.90461 
-5.57393 -0.01666 -8.12531 
-5.52488 -0.641172 -8.19794 
-5.61314 -0.309243 -8.92657 
-5.52731 -0.74285 -8.46948 
-5.59706 -0.532692 -8.44326 
-5.60227 -0.416842 -8.84303 
-5.37654 -0.94655 -8.41505 
-5.61895 -0.561051 -8.70533 
-5.57286 -0.579348 -8.39778 
-5.64365 -0.239894 -8.41458 
-5.58934 -0.187916 -8.11999 
-5.54132 -0.709869 -8.51829 
-5.59934 -0.506471 -8.82269 
-5.41933 -0.878542 -8.95841 
-5.65498 -0.170085 -8.62456 
-5.64186 -0.391728 -8.64363 
-5.66621 -0.14354 -8.64114 
-5.50241 -0.751865 -8.24177 
-5.55637 -0.534078 -8.17912 
-5.62493 -0.523808 -8.76743 
-5.46009 -0.877925 -8.76895 
-5.42042 -0.861153 -8.88773 
-5.59997 -0.532561 -8.46941 
-5.67566 -0.1174 -8.72252 
-5.60911 0.046004 -8.47923 
-5.54462 -0.661142 -8.47803 
-5.56921 -0.424573 -8.12388 
-5.55628 -0.516965 -8.13291 
-5.6358 -0.108828 -8.29123 
-5.54675 -0.625473 -8.44227 
-5.62967 -0.397867 -8.46981 
-5.52537 -0.671063 -8.26189 
-5.64402 -0.42743 -8.71426 
-5.61647 -0.470402 -8.43481 
-5.48146 -0.752279 -8.9587 
-5.6837 -0.135895 -8.77717 
-5.61089 -0.488561 -8.44258 
-5.61904 -0.107498 -8.45122 
-5.45423 -0.833929 -8.95824 
-5.46623 -0.807526 -8.81412 
-5.54662 -0.697062 -8.42423 
-5.62785 -0.045491 -8.76041 
-5.49915 -0.759591 -8.2254 
-5.55878 -0.516517 -8.15195 
-5.52442 -0.747592 -8.55438 
-5.45918 -0.801455 -8.4613 
-5.6419 -0.35073 -8.78403 
-5.56039 -0.675864 -8.77004 
-5.43692 -0.862428 -8.87936 
-5.61241 -0.429376 -8.33417 
-5.62866 -0.298264 -8.51496 
-5.45325 -0.824813 -8.33339 
-5.61826 -0.399524 -8.23609 
-5.64547 -0.370689 -8.58764 
-5.46235 -0.836344 -8.71319 
-5.5699 -0.55031 -8.53205 
-5.56683 -0.615114 -8.36018 
-5.43456 -0.903536 -8.37737 
-5.63228 -0.238694 -8.36484 
-5.47216 -0.760469 -8.1789 
-5.62835 -0.126227 -8.53312 
-5.49186 -0.751942 -8.7774 
-5.63256 -0.384835 -8.80021 
-5.62651 -0.376562 -8.34677 
-5.5734 0.018862 -8.14291 
-5.37735 -0.946847 -8.2259 
-5.37465 -0.945239 -8.37807 
-5.46063 -0.813538 -8.59893 
-5.63087 -0.126624 -8.20578 
-5.49432 -0.81651 -8.5595 
-5.61406 0.048035 -8.7713 
-5.45566 -0.860584 -8.57947 
-5.62149 -0.044753 -8.87874 
-5.5519 -0.699915 -8.41214 
-5.38796 -0.958814 -8.58715 
-5.52357 -0.761017 -8.6925 
-5.52647 -0.716065 -8.26898 
-5.54557 -0.642513 -8.43299 
-5.61795 -0.360502 -8.21459 
-5.6297 -0.39091 -8.72895 
-5.43684 -0.896607 -8.27926 
-5.63981 -0.26008 -8.74826 
-5.64045 -0.361643 -8.76835 
-5.62337 -0.352625 -8.89562 
-5.59122 -0.589171 -8.82892 
-5.5435 -0.623765 -8.94988 
-5.56042 -0.59514 -8.94827 
-5.41624 -0.859859 -8.92511 
-5.58126 -0.61385 -8.76067 
-5.59296 0.128379 -8.85049 
-5.62537 -0.507448 -8.64698 
-5.59182 0.101659 -8.4696 
-5.63313 -0.281731 -8.88433 
-5.47422 -0.7875 -8.74901 
-5.63934 -0.342344 -8.39636 
-5.62919 0.001605 -8.66917 
-5.55457 -0.607126 -8.93175 
-5.63228 -0.516547 -8.63215 
-5.62963 -0.307263 -8.27897 
-5.38279 -0.944707 -8.33323 
-5.56431 -0.661622 -8.61417 
-5.43237 -0.917698 -8.5312 
-5.49949 -0.697123 -8.13476 
-5.59919 0.001323 -8.88621 
-5.6457 -0.362146 -8.69591 
-5.52682 -0.741696 -8.58606 
-5.63445 -0.260842 -8.31343 
-5.6137 0.039629 -8.52099 
-5.53252 -0.7004 -8.81779 
-5.5799 0.011506 -8.20002 
-5.50743 -0.769227 -8.37775 
-5.62289 -0.505764 -8.62002 
-5.65531 -0.098678 -8.64216 
-5.63533 -0.246126 -8.7691 
-5.48162 -0.772109 -8.64342 
-5.56031 -0.576977 -8.94277 
-5.64769 -0.207804 -8.57044 
-5.68276 -0.107361 -8.76883 
-5.63005 -0.153941 -8.26017 
-5.60067 0.128327 -8.61532 
-5.52378 -0.662216 -8.25932 
-5.63898 -0.134927 -8.29607 
-5.46318 -0.815423 -8.15421 
-5.50773 -0.753033 -8.40494 
-5.63089 -0.207258 -8.51547 
-5.60403 0.102338 -8.75023 
-5.47329 -0.777751 -8.3518 
-5.60659 -0.624193 -8.64024 
-5.62192 -0.323447 -8.91519 
-5.55835 0.084119 -8.12437 
-5.60977 -0.451602 -8.40675 
-5.3725 -0.967492 -8.18974 
-5.57647 -0.626343 -8.58725 
-5.59593 0.095566 -8.79062 
-5.6062 -0.622204 -8.71548 
-5.63331 -0.316496 -8.8949 
-5.62084 -0.262721 -8.32526 
-5.62776 -0.234857 -8.53299 
-5.62426 0.004917 -8.37989 
-5.60074 -0.425668 -8.84198 
-5.53607 -0.642101 -8.34218 
-5.36514 -0.970911 -8.2887 
-5.52942 -0.734637 -8.66931 
-5.5436 -0.696266 -8.6311 
-5.64184 -0.287454 -8.69288 
-5.60161 0.133171 -8.67797 
-5.60078 0.056355 -8.27024 
-5.62618 -0.270299 -8.53382 
-5.62363 -0.144777 -8.51729 
-5.49578 -0.799822 -8.53566 
-5.43748 -0.892152 -8.41709 
-5.45242 -0.88586 -8.52204 
-5.56311 -0.634732 -8.894 
-5.63075 -0.350798 -8.35807 
-5.63964 -0.308329 -8.78793 
-5.62512 -0.487283 -8.74828 
-5.58726 -0.562544 -8.42141 
-5.61124 -0.115506 -8.19699 
-5.41901 -0.851972 -8.13347 
-5.63181 -0.031875 -8.53233 
-5.51064 -0.725372 -8.22278 
-5.62296 -0.052355 -8.88085 
-5.63662 -0.251953 -8.3139 
-5.53005 -0.626702 -8.24311 
-5.49184 -0.783556 -8.59877 
-5.63611 -0.22701 -8.92181 
-5.59231 0.113807 -8.79272 
-5.5171 -0.660813 -8.15142 
-5.59259 -0.035533 -8.2063 
-5.36669 -0.974243 -8.64275 
-5.61763 -0.025889 -8.46015 
-5.53109 -0.736545 -8.46568 
-5.51168 -0.755717 -8.80388 
-5.61979 -0.099026 -8.48739 
-5.46763 -0.840082 -8.41374 
-5.62624 -0.124661 -8.43075 
-5.45517 -0.843187 -8.67804 
-5.62753 -0.152865 -8.18051 
-5.62654 0.001668 -8.75876 
-5.56364 0.065001 -8.15217 
-5.51919 -0.733566 -8.2887 
-5.6384 -0.116718 -8.34339 
-5.52109 -0.690951 -8.94162 
-5.46119 -0.840968 -8.25007 
-5.60554 -0.513113 -8.80664 
-5.51148 -0.752094 -8.34239 
-5.48098 -0.759651 -8.89463 
-5.61966 -0.117162 -8.91539 
-5.36753 -0.94929 -8.34373 
-5.5958 -0.051441 -8.31402 
-5.54858 -0.552605 -8.17026 
-5.61995 -0.33309 -8.9065 
-5.38962 -0.913335 -8.19964 
-5.48036 -0.84154 -8.57517 
-5.62867 -0.525413 -8.64013 
-5.49912 -0.778693 -8.28234 
-5.49038 -0.784598 -8.49971 
-5.62179 -0.161717 -8.40702 
-5.67053 -0.09052 -8.77427 
-5.62814 -0.152283 -8.2058 
-5.59927 -0.442972 -8.50792 
-5.65131 -0.137958 -8.88156 
-5.65595 -0.232558 -8.74154 
-5.3778 -0.95263 -8.49572 
-5.52456 -0.743059 -8.68625 
-5.63471 -0.079851 -8.81452 
-5.64536 -0.308026 -8.46988 
-5.39084 -0.942936 -8.61479 
-5.50057 -0.762021 -8.63754 
-5.61821 -0.04344 -8.4888 
-5.54139 -0.660284 -8.88826 
-5.59496 -0.571284 -8.80647 
-5.60185 -0.31618 -8.16926 
-5.63591 -0.289499 -8.88456 
-5.36768 -0.959551 -8.26063 
-5.53663 -0.724261 -8.67849 
-5.59213 -0.280257 -8.1342 
-5.43718 -0.840397 -8.16935 
-5.55868 -0.673754 -8.7872 
-5.6308 -0.206245 -8.26248 
-5.63366 -0.301866 -8.46141 
-5.61027 -0.052603 -8.4057 
-5.49139 -0.760692 -8.81322 
-5.46834 -0.789916 -8.88683 
-5.59598 -0.017853 -8.33262 
-5.50435 -0.759816 -8.38763 
-5.57345 -0.570925 -8.35279 
-5.64741 -0.289348 -8.58753 
-5.61821 -0.053795 -8.4875 
-5.46618 -0.85283 -8.51038 
-5.64166 -0.349858 -8.63071 
-5.61428 -0.289925 -8.35041 
-5.60964 -0.61601 -8.7055 
-5.57125 -0.650696 -8.65177 
-5.5395 -0.599359 -8.2333 
-5.62752 -0.243229 -8.46799 
-5.59978 0.065219 -8.35219 
-5.60065 -0.452148 -8.25131 
-5.60739 -0.440279 -8.27739 
-5.38363 -0.945378 -8.43235 
-5.45569 -0.851177 -8.91323 
-5.58635 -0.133743 -8.11358 
-5.62155 -0.264228 -8.38789 
-5.63456 -0.491277 -8.63415 
-5.53264 -0.589128 -8.15554 
-5.42595 -0.906081 -8.81097 
-5.59214 -0.481093 -8.32425 
-5.63053 -0.153398 -8.29719 
-5.46384 -0.781371 -8.20865 
-5.68092 -0.162938 -8.6544 
-5.62784 -0.107245 -8.54216 
-5.63721 -0.387105 -8.6787 
-5.6257 -0.007795 -8.80272 
-5.59059 -0.280486 -8.15485 
-5.59099 -0.189178 -8.09649 
-5.56754 0.063367 -8.19796 
-5.59204 -0.612789 -8.75723 
-5.60299 -0.46281 -8.32684 
-5.43433 -0.892844 -8.26248 
-5.58288 -0.489053 -8.83374 
-5.59172 -0.2889 -8.13383 
-5.5269 -0.697716 -8.28757 
-5.40073 -0.905926 -8.84971 
-5.45452 -0.851743 -8.43919 
-5.60902 0.091745 -8.64141 
-5.63671 -0.398354 -8.77697 
-5.63323 -0.448578 -8.60106 
-5.37498 -0.935543 -8.89554 
-5.49031 -0.778112 -8.20671 
-5.37885 -0.97455 -8.73921 
-5.44602 -0.894941 -8.69505 
-5.59246 0.048328 -8.36205 
-5.59714 -0.561823 -8.81472 
-5.44902 -0.865077 -8.86969 
-5.63854 -0.172384 -8.80634 
-5.61449 -0.42542 -8.24885 
-5.61792 -0.089801 -8.46997 
-5.58172 -0.40676 -8.93915 
-5.57284 -0.424406 -8.11489 
-5.63471 -0.025619 -8.59468 
-5.6616 -0.102488 -8.64574 
-5.54102 -0.691961 -8.48853 
-5.64246 -0.443066 -8.71625 
-5.38736 -0.932965 -8.30484 
-5.60278 0.119455 -8.75083 
-5.62815 -0.406815 -8.43348 
-5.37327 -0.963007 -8.76189 
-5.62033 0.019977 -8.58616 
-5.60711 0.043706 -8.35253 
-5.58998 -0.418153 -8.88898 
-5.45298 -0.859193 -8.24514 
-5.36374 -0.977291 -8.77755 
-5.59131 -0.628191 -8.71471 
-5.58726 -0.584155 -8.8265 
-5.62025 -0.462646 -8.80422 
-5.56945 -0.657146 -8.55176 
-5.6197 -0.333481 -8.5053 
-5.3705 -0.948415 -8.20862 
-5.61288 0.037994 -8.51632 
-5.58739 -0.276995 -8.11771 
-5.40696 -0.92352 -8.66022 
-5.38383 -0.944178 -8.30593 
-5.6348 -0.081964 -8.84786 
-5.44149 -0.845656 -8.95743 
-5.65307 -0.055793 -8.73072 
-5.59766 0.099109 -8.84373 
-5.63476 -0.478252 -8.76725 
-5.61784 0.036475 -8.5141 
-5.59183 -0.641361 -8.63322 
-5.54256 -0.676544 -8.89637 
-5.61724 -0.404116 -8.83935 
-5.50913 -0.751717 -8.25169 
-5.59323 -0.628829 -8.67153 
-5.57134 0.000341 -8.07958 
-5.61447 -0.286304 -8.17563 
-5.62748 -0.271414 -8.93164 
-5.64762 -0.307279 -8.69581 
-5.60343 0.040087 -8.33669 
-5.58298 -0.597231 -8.45117 
-5.61808 -0.298184 -8.19797 
-5.55479 -0.688265 -8.72345 
-5.63076 -0.223739 -8.9179 
-5.37411 -0.944206 -8.25174 
-5.61822 -0.513724 -8.72354 
-5.67653 -0.097701 -8.76357 
-5.56675 -0.625446 -8.81339 
-5.51004 -0.726084 -8.9243 
-5.54594 -0.606539 -8.29699 
-5.57147 -0.57887 -8.35263 
-5.41859 -0.878836 -8.94933 
-5.6081 -0.02567 -8.41518 
-5.60161 0.07271 -8.77862 
-5.60155 -0.426385 -8.19711 
-5.50197 -0.753507 -8.23388 
-5.56244 -0.666214 -8.54031 
-5.52631 -0.660775 -8.30662 
-5.45357 -0.833056 -8.44038 
-5.61949 0.000881 -8.47882 
-5.61801 -0.098625 -8.47038 
-5.60985 0.064066 -8.6326 
-5.56154 -0.569236 -8.34389 
-5.53277 -0.714161 -8.31392 
-5.57284 0.047267 -8.18918 
-5.60199 -0.060656 -8.33315 
-5.63407 -0.053878 -8.80567 
-5.51125 -0.771381 -8.67722 
-5.59735 -0.027068 -8.30598 
-5.62379 -0.443112 -8.46036 
-5.55367 -0.579175 -8.8853 
-5.51303 -0.671039 -8.18913 
-5.56923 -0.602766 -8.45839 
-5.62333 -0.434986 -8.45703 
-5.59667 0.133625 -8.65053 
-5.46463 -0.815379 -8.86788 
-5.34494 -0.978595 -8.85854 
-5.64325 -0.360216 -8.75009 
-5.64575 -0.079093 -8.56306 
-5.68191 -0.156784 -8.73474 
-5.53513 -0.702188 -8.83489 
-5.58074 -0.459163 -8.9134 
-5.61065 0.073597 -8.64202 
-5.62619 -0.179053 -8.26965 
-5.60185 -0.553406 -8.60564 
-5.61029 -0.244088 -8.17047 
-5.57755 -0.473667 -8.83661 
-5.52664 -0.761548 -8.45177 
-5.56085 -0.585103 -8.86358 
-5.50982 -0.6793 -8.14265 
-5.6737 -0.126165 -8.696 
-5.61672 -0.325961 -8.17983 
-5.63548 -0.487172 -8.68689 
-5.46877 -0.807866 -8.73274 
-5.62594 -0.261985 -8.27848 
-5.46003 -0.851752 -8.85097 
-5.59404 0.061481 -8.34421 
-5.53762 -0.643403 -8.31514 
-5.51188 -0.652512 -8.10421 
-5.35484 -0.977387 -8.82345 
-5.5923 -0.51631 -8.41429 
-5.63474 -0.32605 -8.88542 
-5.63803 -0.243146 -8.89572 
-5.62768 -0.18062 -8.51465 
-5.45531 -0.87898 -8.64131 
-5.53304 -0.702352 -8.87589 
-5.57301 -0.525401 -8.33267 
-5.39604 -0.936949 -8.59125 
-5.63037 -0.129632 -8.56629 
-5.63205 -0.100495 -8.84954 
-5.63899 -0.298651 -8.84105 
-5.51473 -0.751954 -8.36955 
-5.57466 -0.016481 -8.08829 
-5.63899 -0.152791 -8.89764 
-5.61928 -0.044128 -8.4965 
-5.6288 -0.371007 -8.29659 
-5.59756 0.074705 -8.31521 
-5.64617 -0.325121 -8.45086 
-5.63896 -0.207522 -8.82095 
-5.57923 -0.534292 -8.94719 
-5.64328 -0.177417 -8.56412 
-5.52352 -0.738137 -8.44662 
-5.58719 -0.089159 -8.11458 
-5.60839 0.071046 -8.74451 
-5.60697 0.047112 -8.85041 
-5.63718 -0.235248 -8.90737 
-5.59613 0.07068 -8.34961 
-5.4992 -0.777889 -8.31507 
-5.43837 -0.906457 -8.62179 
-5.57372 0.083106 -8.20705 
-5.61878 -0.397736 -8.56873 
-5.63184 -0.225719 -8.77765 
-5.52441 -0.709444 -8.89384 
-5.64334 -0.171283 -8.84886 
-5.61934 -0.289004 -8.18017 
-5.58718 -0.514748 -8.52252 
-5.63945 -0.326343 -8.48935 
-5.44649 -0.879287 -8.56847 
-5.38933 -0.965563 -8.71719 
-5.56011 -0.548879 -8.24935 
-5.52359 -0.639397 -8.19213 
-5.52382 -0.756206 -8.44816 
-5.47825 -0.742571 -8.17074 
-5.45999 -0.877921 -8.4315 
-5.60048 0.127861 -8.77775 
-5.6331 -0.176222 -8.22938 
-5.62569 -0.425035 -8.45192 
-5.55049 -0.651596 -8.5128 
-5.53268 -0.602185 -8.16496 
-5.41891 -0.918146 -8.64328 
-5.4485 -0.898945 -8.74967 
-5.66729 -0.12496 -8.66127 
-5.62457 -0.341316 -8.54329 
-5.39094 -0.942298 -8.57815 
-5.59119 -0.515419 -8.90415 
-5.60681 0.054695 -8.27949 
-5.57952 -0.497789 -8.18337 
-5.47776 -0.742992 -8.16899 
-5.58559 -0.424611 -8.87715 
-5.67364 -0.153761 -8.65858 
-5.62269 -0.569642 -8.64174 
-5.65286 -0.213869 -8.77526 
-5.53447 -0.715171 -8.80657 
-5.36624 -0.978162 -8.69661 
-5.56649 -0.624489 -8.5573 
-5.61711 -0.378801 -8.52347 
-5.6003 -0.034771 -8.32435 
-5.63204 -0.176057 -8.90592 
-5.57184 -0.606849 -8.36207 
-5.55889 -0.664712 -8.66834 
-5.59413 0.119912 -8.39706 
-5.4331 -0.9044 -8.38859 
-5.622 -0.540439 -8.74093 
-5.62103 -0.579172 -8.73235 
-5.57402 -0.507602 -8.32407 
-5.39107 -0.924491 -8.34272 
-5.572 -0.605865 -8.3706 
-5.46875 -0.86424 -8.72254 
-5.38014 -0.961727 -8.45161 
-5.63675 -0.111065 -8.28239 
-5.66193 -0.125821 -8.80136 
-5.45754 -0.827382 -8.68654 
-5.61943 -0.562222 -8.65176 
-5.49912 -0.696673 -8.18856 
-5.56409 -0.587533 -8.50596 
-5.61367 -0.496624 -8.65442 
-5.45674 -0.871129 -8.80456 
-5.63881 -0.052247 -8.75932 
-5.39882 -0.903431 -8.1525 
-5.44584 -0.849945 -8.62463 
-5.41926 -0.915124 -8.80475 
-5.53689 -0.688338 -8.81405 
-5.68284 -0.198661 -8.67842 
-5.62375 -0.211282 -8.21025 
-5.4172 -0.860907 -8.91396 
-5.63388 -0.36959 -8.39701 
-5.6183 -0.497529 -8.61502 
-5.44145 -0.882928 -8.27351 
-5.52073 -0.698139 -8.9051 
-5.55854 -0.605585 -8.8608 
-5.62729 -0.488001 -8.69456 
-5.52513 -0.753455 -8.66858 
-5.60845 -0.541598 -8.58749 
-5.63961 -0.208812 -8.60822 
-5.52879 -0.679627 -8.3873 
-5.62914 -0.062583 -8.84163 
-5.43638 -0.860525 -8.95834 
-5.63366 -0.02643 -8.6516 
-5.6216 -0.043999 -8.88819 
-5.57143 -0.632432 -8.84972 
-5.60183 0.038762 -8.87812 
-5.53791 -0.597826 -8.19686 
-5.60161 -0.107131 -8.20567 
-5.52083 -0.634693 -8.15324 
-5.61788 -0.089191 -8.46011 
-5.62919 -0.280131 -8.88673 
-5.50113 -0.760999 -8.2417 
-5.64307 -0.179038 -8.84102 
-5.64568 -0.270648 -8.5693 
-5.54709 -0.68039 -8.71317 
-5.67135 -0.187269 -8.65841 
-5.67893 -0.108632 -8.69732 
-5.57818 -0.494986 -8.30738 
-5.55218 -0.597827 -8.93447 
-5.61323 0.049811 -8.69479 
-5.47363 -0.815581 -8.39686 
-5.60427 -0.450674 -8.5243 
-5.6615 -0.221397 -8.75656 
-5.55016 -0.682397 -8.83123 
-5.43023 -0.904428 -8.66836 
-5.62967 -0.101006 -8.9067 
-5.57845 -0.48719 -8.8624 
-5.56426 -0.659853 -8.6241 
-5.5848 -0.489096 -8.94742 
-5.59733 -0.530997 -8.42714 
-5.46456 -0.806578 -8.9413 
-5.59899 0.128164 -8.65287 
-5.53776 -0.669539 -8.43371 
-5.36726 -0.972207 -8.54346 
-5.60288 0.128257 -8.60725 
-5.62365 -0.282373 -8.48874 
-5.63209 -0.253787 -8.69771 
-5.46621 -0.832808 -8.75986 
-5.60106 -0.098271 -8.24303 
-5.58984 -0.588048 -8.58064 
-5.63231 -0.185897 -8.44475 
-5.64466 -0.379285 -8.65068 
-5.6169 -0.000341 -8.78823 
-5.64292 -0.292386 -8.67927 
-5.63051 -0.127244 -8.42696 
-5.62353 -0.272982 -8.44437 
-5.45569 -0.842687 -8.2977 
-5.5236 -0.620583 -8.19091 
-5.53685 -0.703611 -8.33265 
-5.63907 -0.068927 -8.76913 
-5.47409 -0.779487 -8.9496 
-5.55431 0.065306 -8.08819 
-5.45734 -0.79739 -8.14203 
-5.55375 -0.678174 -8.78546 
-5.60301 0.109018 -8.56804 
-5.40962 -0.870343 -8.11021 
-5.63534 -0.2734 -8.85069 
-5.35131 -0.983401 -8.19713 
-5.58716 -0.256215 -8.11581 
-5.47428 -0.788742 -8.39674 
-5.6276 -0.242814 -8.2611 
-5.51587 -0.768094 -8.38706 
-5.62597 -0.134459 -8.52488 
-5.57292 -0.43447 -8.16158 
-5.41414 -0.864641 -8.93233 
-5.66509 -0.162918 -8.64003 
-5.59338 -0.072367 -8.22421 
-5.62484 -0.298695 -8.43266 
-5.62861 -0.261263 -8.49695 
-5.55446 -0.623285 -8.46842 
-5.4263 -0.901879 -8.27107 
-5.58281 0.001027 -8.20653 
-5.53842 -0.688124 -8.80446 
-5.62097 -0.562083 -8.75997 
-5.67997 -0.185784 -8.77523 
-5.66562 -0.1368 -8.79458 
-5.64882 -0.272926 -8.59753 
-5.63269 -0.144901 -8.25508 
-5.62611 -0.268199 -8.90541 
-5.59187 0.110321 -8.51412 
-5.54765 -0.690467 -8.63297 
-5.64013 -0.3639 -8.71389 
-5.56383 0.083886 -8.14299 
-5.58699 -0.505573 -8.39019 
-5.59746 0.110064 -8.52405 
-5.49483 -0.768753 -8.3541 
-5.59609 0.008362 -8.28371 
-5.62458 -0.048572 -8.50694 
-5.5384 -0.570907 -8.12476 
-5.6337 -0.017517 -8.74057 
-5.44119 -0.862766 -8.57185 
-5.62825 -0.425448 -8.80437 
-5.61026 -0.425526 -8.54248 
-5.49215 -0.772747 -8.46988 
-5.63663 -0.279815 -8.30564 
-5.50758 -0.736003 -8.86003 
-5.59153 -0.629087 -8.64112 
-5.55115 -0.69372 -8.43668 
-5.61215 -0.59746 -8.74328 
-5.52742 -0.733153 -8.85123 
-5.61072 -0.071185 -8.35058 
-5.61293 -0.36351 -8.21452 
-5.63929 -0.37798 -8.57899 
-5.63698 -0.252525 -8.36991 
-5.59245 -0.451727 -8.83393 
-5.63833 -0.13515 -8.36154 
-5.45071 -0.810667 -8.14014 
-5.47042 -0.797686 -8.79617 
-5.61074 -0.44377 -8.38768 
-5.53396 -0.706493 -8.77033 
-5.52343 -0.626604 -8.15398 
-5.64197 -0.343374 -8.76949 
-5.58262 -0.379702 -8.15184 
-5.58824 -0.596564 -8.80744 
-5.39385 -0.907034 -8.15124 
-5.59118 -0.624311 -8.5982 
-5.60703 0.075209 -8.68657 
-5.59024 -0.054858 -8.19745 
-5.5442 -0.703261 -8.68223 
-5.63614 -0.232355 -8.75867 
-5.55837 -0.55289 -8.87766 
-5.5576 -0.625313 -8.5411 
-5.53064 -0.607117 -8.1696 
-5.63096 -0.198976 -8.55833 
-5.57521 -0.633522 -8.785 
-5.60052 0.092859 -8.80476 
-5.61473 -0.35747 -8.18989 
-5.63378 -0.106088 -8.43111 
-5.64177 -0.134633 -8.81623 
-5.42868 -0.924973 -8.50606 
-5.52056 -0.72439 -8.83126 
-5.61136 -0.415735 -8.83553 
-5.48471 -0.789401 -8.24975 
-5.45227 -0.84122 -8.62492 
-5.58018 0.029489 -8.19999 
-5.56398 0.091878 -8.06593 
-5.52767 -0.742567 -8.74184 
-5.6297 -0.30895 -8.29609 
-5.58758 -0.550529 -8.37227 
-5.59425 0.056922 -8.87833 
-5.60153 -0.043887 -8.33366 
-5.64632 -0.280661 -8.64172 
-5.6055 0.125487 -8.71485 
-5.64016 -0.300329 -8.78971 
-5.48314 -0.769364 -8.19655 
-5.61755 -0.41536 -8.28784 
-5.61445 -0.409626 -8.54849 
-5.51505 -0.757538 -8.73247 
-5.59019 -0.261758 -8.08888 
-5.38679 -0.944695 -8.57191 
-5.66789 -0.218928 -8.75286 
-5.62035 -0.316264 -8.31696 
-5.59487 0.085018 -8.46816 
-5.64858 -0.417004 -8.67899 
-5.68695 -0.179205 -8.71911 
-5.35158 -0.987173 -8.14297 
-5.52302 -0.644524 -8.22289 
-5.6349 -0.072112 -8.82282 
-5.57758 -0.373423 -8.09754 
-5.44759 -0.89711 -8.63365 
-5.63062 -0.354745 -8.36802 
-5.62 -0.423905 -8.82293 
-5.54186 -0.650771 -8.42052 
-5.55456 -0.631207 -8.37716 
-5.45826 -0.835306 -8.50463 
-5.63743 -0.424392 -8.61325 
-5.54848 -0.688693 -8.68774 
-5.53085 -0.727542 -8.50239 
-5.62679 -0.335756 -8.54952 
-5.34812 -0.970115 -8.87846 
-5.63192 -0.235766 -8.76132 
-5.62294 -0.278413 -8.44878 
-5.59169 -0.398017 -8.1707 
-5.63863 -0.071481 -8.61495 
-5.64177 -0.169925 -8.87308 
-5.43031 -0.9007 -8.30639 
-5.45226 -0.886338 -8.43123 
-5.55442 -0.615989 -8.48748 
-5.51801 -0.742998 -8.3246 
-5.43866 -0.888267 -8.34195 
-5.63074 -0.380995 -8.38853 
-5.63266 -0.181235 -8.81462 
-5.50032 -0.688094 -8.10724 
-5.62238 -0.30693 -8.24288 
-5.64286 -0.416299 -8.7135 
-5.59178 -0.171262 -8.14335 
-5.60328 -0.519708 -8.68608 
-5.53674 -0.697742 -8.43301 
-5.64085 -0.181711 -8.841 
-5.57237 -0.506014 -8.35204 
-5.63606 -0.388195 -8.79579 
-5.58095 -0.580195 -8.44223 
-5.62692 -0.325742 -8.31452 
-5.67079 -0.075364 -8.7391 
-5.59966 0.063525 -8.29638 
-5.64236 -0.117533 -8.33302 
-5.59219 -0.497864 -8.37917 
-5.3647 -0.96112 -8.8138 
-5.66155 -0.204663 -8.65205 
-5.56158 -0.589249 -8.94916 
-5.41446 -0.923846 -8.60889 
-5.6202 0.009439 -8.50535 
-5.61437 0.037064 -8.78132 
-5.65474 -0.198062 -8.57957 
-5.58522 -0.525021 -8.56085 
-5.64183 -0.236303 -8.41955 
-5.61107 -0.469485 -8.82279 
-5.63771 -0.398181 -8.59634 
-5.44912 -0.84965 -8.32284 
-5.54501 -0.662328 -8.88602 
-5.58262 -0.388113 -8.16236 
-5.57723 -0.436171 -8.16583 
-5.6061 -0.488083 -8.49229 
-5.57811 -0.474239 -8.89853 
-5.57448 -0.634162 -8.74134 
-5.62104 -0.522039 -8.65275 
-5.48406 -0.751525 -8.8696 
-5.64722 -0.08741 -8.78218 
-5.44752 -0.879533 -8.78709 
-5.52347 -0.688359 -8.92051 
-5.61076 -0.416391 -8.56005 
-5.36867 -0.93593 -8.11679 
-5.38613 -0.960552 -8.5783 
-5.56024 -0.638603 -8.89405 
-5.4721 -0.843782 -8.79816 
-5.59029 0.102013 -8.46111 
-5.63688 -0.389537 -8.77802 
-5.63769 -0.234408 -8.29754 
-5.61472 -0.391175 -8.32815 
-5.64316 -0.142968 -8.40376 
-5.37823 -0.967802 -8.36876 
-5.4218 -0.927775 -8.74716 
-5.63911 -0.304954 -8.46699 
-5.63746 -0.080593 -8.90434 
-5.64545 -0.409211 -8.69681 
-5.6164 -0.06202 -8.4709 
-5.63601 -0.161219 -8.37856 
-5.54688 -0.589185 -8.27919 
-5.35422 -0.977123 -8.17036 
-5.65813 -0.098018 -8.64668 
-5.63956 -0.042537 -8.57827 
-5.50837 -0.72066 -8.94206 
-5.63266 -0.035873 -8.6525 
-5.42406 -0.848155 -8.12957 
-5.63811 -0.416058 -8.6146 
-5.46003 -0.848786 -8.85836 
-5.60516 -0.570251 -8.61035 
-5.54729 -0.682347 -8.65106 
-5.48738 -0.830769 -8.56904 
-5.64692 -0.153026 -8.56892 
-5.5268 -0.731631 -8.69504 
-5.63029 -0.006098 -8.55036 
-5.58788 -0.089666 -8.1168 
-5.63647 -0.470029 -8.69543 
-5.47249 -0.750907 -8.1071 
-5.55832 -0.553035 -8.31472 
-5.5881 -0.152216 -8.10502 
-5.59553 -0.044266 -8.30717 
-5.44549 -0.895524 -8.73232 
-5.5826 -0.541299 -8.49209 
-5.43644 -0.893866 -8.56568 
-5.46831 -0.807133 -8.61652 
-5.62214 -0.331988 -8.36823 
-5.63724 -0.307981 -8.64149 
-5.59088 -0.261744 -8.14285 
-5.41756 -0.869073 -8.91374 
-5.47054 -0.779844 -8.89581 
-5.48003 -0.775233 -8.80315 
-5.61139 0.055712 -8.72429 
-5.48296 -0.806826 -8.51124 
-5.38942 -0.914342 -8.88641 
-5.57867 0.003651 -8.14662 
-5.39552 -0.899996 -8.12287 
-5.4831 -0.733916 -8.11619 
-5.56964 -0.632732 -8.86773 
-5.62757 -0.379182 -8.30572 
-5.42663 -0.923121 -8.79381 
-5.67581 -0.096835 -8.70704 
-5.58089 0.11037 -8.20741 
-5.57822 -0.612635 -8.42321 
-5.62671 0.000572 -8.58616 
-5.62871 -0.007164 -8.45198 
-5.6185 -0.436133 -8.81565 
-5.46981 -0.867282 -8.73885 
-5.63239 -0.224495 -8.27318 
-5.62603 -0.450242 -8.80475 
-5.56134 -0.641473 -8.88639 
-5.63282 -0.209891 -8.26624 
-5.63258 -0.336878 -8.84704 
-5.64042 -0.226336 -8.89557 
-5.60086 0.046322 -8.38794 
-5.59684 0.012334 -8.28022 
-5.63211 -0.076377 -8.84286 
-5.44166 -0.887099 -8.27011 
-5.63686 -0.335005 -8.3877 
-5.62617 -0.253915 -8.48807 
-5.62011 0.028941 -8.56268 
-5.46745 -0.792278 -8.44147 
-5.64411 -0.147447 -8.86959 
-5.60418 -0.390076 -8.21437 
-5.43629 -0.904559 -8.66874 
-5.67408 -0.217612 -8.71263 
-5.3501 -0.984869 -8.19804 
-5.36815 -0.97412 -8.75142 
-5.6373 -0.27034 -8.29669 
-5.41009 -0.869952 -8.13406 
-5.49215 -0.725952 -8.93214 
-5.41083 -0.915498 -8.46744 
-5.6002 0.128644 -8.76856 
-5.52584 -0.706325 -8.83213 
-5.4746 -0.843362 -8.54914 
-5.60943 -0.080624 -8.32415 
-5.46127 -0.836401 -8.70641 
-5.62085 0.019511 -8.37837 
-5.63493 -0.335454 -8.80636 
-5.45898 -0.863243 -8.53412 
-5.6419 -0.205548 -8.87963 
-5.56907 -0.008013 -8.1245 
-5.35534 -0.985896 -8.2709 
-5.5177 -0.740978 -8.53342 
-5.63477 -0.408768 -8.74993 
-5.45019 -0.851828 -8.33236 
-5.58289 -0.636724 -8.60333 
-5.62364 0.019039 -8.69841 
-5.6304 -0.053997 -8.5219 
-5.58793 -0.133448 -8.11576 
-5.47006 -0.82348 -8.16504 
-5.56815 -0.588727 -8.35945 
-5.64642 -0.079803 -8.59607 
-5.38287 -0.943611 -8.35139 
-5.5676 -0.651882 -8.70633 
-5.63518 -0.170315 -8.36798 
-5.55848 -0.588839 -8.48586 
-5.59079 -0.03566 -8.21562 
-5.4182 -0.921743 -8.36909 
-5.54245 -0.68143 -8.42473 
-5.62044 -0.589553 -8.63147 
-5.59249 -0.225692 -8.14275 
-5.63084 -0.305413 -8.45067 
-5.37358 -0.968808 -8.56047 
-5.62343 -0.103196 -8.32189 
-5.62438 -0.13355 -8.43151 
-5.60572 0.107593 -8.64513 
-5.58287 -0.353135 -8.13259 
-5.60469 0.049117 -8.47667 
-5.5965 -0.541619 -8.45131 
-5.43095 -0.888403 -8.59686 
-5.35761 -0.961221 -8.11604 
-5.6276 -0.207171 -8.30584 
-5.62191 -0.516563 -8.77678 
-5.49062 -0.7494 -8.7594 
-5.62376 -0.53821 -8.66796 
-5.58889 0.135235 -8.8594 
-5.35652 -0.979618 -8.78629 
-5.63515 -0.171369 -8.22357 
-5.65189 -0.4177 -8.67557 
-5.4099 -0.903154 -8.2361 
-5.63793 -0.316081 -8.4424 
-5.62819 -0.243707 -8.51536 
-5.41603 -0.948718 -8.74798 
-5.617 -0.605651 -8.70577 
-5.61216 -0.56843 -8.7711 
-5.46215 -0.8068 -8.95803 
-5.62369 -0.03559 -8.91237 
-5.62537 -0.17096 -8.40641 
-5.41601 -0.869897 -8.92261 
-5.38854 -0.940232 -8.32525 
-5.58761 -0.091209 -8.1461 
-5.58218 -0.434277 -8.89478 
-5.4736 -0.796282 -8.17955 
-5.46662 -0.854658 -8.39612 
-5.6447 -0.279404 -8.62407 
-5.40194 -0.924733 -8.46176 
-5.61384 -0.297396 -8.33291 
-5.62634 -0.198371 -8.91329 
-5.55842 0.082294 -8.11727 
-5.55627 -0.597617 -8.94086 
-5.57332 0.019753 -8.17067 
-5.61625 0.045666 -8.76902 
-5.58889 0.100743 -8.45141 
-5.4592 -0.853746 -8.28383 
-5.56219 -0.666389 -8.5325 
-5.67748 -0.119491 -8.73077 
-5.62723 -0.061639 -8.85919 
-5.63765 -0.460927 -8.75897 
-5.51184 -0.717789 -8.92703 
-5.6306 -0.290149 -8.3096 
-5.57499 -0.580472 -8.40565 
-5.64195 -0.098259 -8.41592 
-5.59772 0.129454 -8.64023 
-5.66725 -0.148671 -8.69946 
-5.62953 -0.0073 -8.65905 
-5.58757 -0.288049 -8.10536 
-5.54283 -0.702066 -8.59103 
-5.53482 -0.703564 -8.34264 
-5.57194 -0.633935 -8.8025 
-5.45813 -0.82276 -8.76393 
-5.40518 -0.919431 -8.6457 
-5.63348 -0.361972 -8.31561 
-5.35342 -0.977525 -8.19748 
-5.6283 -0.479647 -8.66 
-5.6657 -0.105965 -8.64965 
-5.43927 -0.89762 -8.36055 
-5.57459 -0.561562 -8.56895 
-5.45558 -0.888959 -8.66899 
-5.56535 -0.662013 -8.74155 
-5.50803 -0.770102 -8.42391 
-5.55749 -0.552538 -8.2243 
-5.62748 -0.369706 -8.31427 
-5.49079 -0.743964 -8.87742 
-5.55403 0.064298 -8.08035 
-5.63105 -0.02736 -8.72352 
-5.61033 0.010253 -8.31526 
-5.60913 -0.1079 -8.23356 
-5.59537 0.064508 -8.32292 
-5.56162 -0.667963 -8.80557 
-5.57821 -0.542719 -8.50865 
-5.64292 -0.452802 -8.63417 
-5.40997 -0.915017 -8.67822 
-5.57463 -0.380011 -8.12405 
-5.64639 -0.352846 -8.69565 
-5.53604 -0.724223 -8.66898 
-5.63293 -0.394305 -8.46605 
-5.53697 -0.715615 -8.78725 
-5.59748 0.073674 -8.84822 
-5.58383 -0.379676 -8.16076 
-5.45935 -0.861643 -8.81335 
-5.64227 -0.289396 -8.84855 
-5.42902 -0.925606 -8.51316 
-5.54436 -0.696948 -8.84966 
-5.64579 -0.153048 -8.59646 
-5.62937 -0.323844 -8.40603 
-5.59045 -0.235379 -8.08938 
-5.60344 0.028734 -8.80493 
-5.55027 -0.563136 -8.21581 
-5.46894 -0.779228 -8.96209 
-5.38646 -0.953506 -8.70981 
-5.50608 -0.711048 -8.21964 
-5.58315 -0.489102 -8.28802 
-5.51025 -0.770363 -8.48756 
-5.46689 -0.788416 -8.9045 
-5.59224 -0.479217 -8.21546 
-5.64783 -0.106875 -8.63183 
-5.64211 -0.340786 -8.5735 
-5.5376 -0.643835 -8.27962 
-5.61789 0.001559 -8.83221 
-5.59678 -0.107319 -8.17963 
-5.51842 -0.660923 -8.22455 
-5.60494 0.023979 -8.43704 
-5.46632 -0.789152 -8.85076 
-5.61147 -0.390979 -8.85946 
-5.6372 -0.234726 -8.66896 
-5.37463 -0.972261 -8.7423 
-5.59615 0.053445 -8.29799 
-5.63603 -0.108608 -8.42625 
-5.63287 -0.002772 -8.57116 
-5.59619 0.010898 -8.88295 
-5.63347 -0.025042 -8.7318 
-5.66275 -0.231904 -8.73173 
-5.50082 -0.706382 -8.97036 
-5.53708 -0.70685 -8.67659 
-5.59806 0.090231 -8.4802 
-5.5699 -0.533474 -8.86795 
-5.52122 -0.752204 -8.59527 
-5.57443 -0.597859 -8.41623 
-5.60319 0.047055 -8.85843 
-5.53782 -0.579408 -8.1166 
-5.63585 -0.235555 -8.78767 
-5.5279 -0.679371 -8.9409 
-5.61829 -0.543623 -8.72392 
-5.63335 -0.392864 -8.82077 
-5.39481 -0.952611 -8.72028 
-5.67797 -0.095291 -8.74769 
-5.65149 -0.290106 -8.59553 
-5.60555 -0.439812 -8.28789 
-5.60641 0.082588 -8.58513 
-5.6262 -0.418565 -8.83058 
-5.64299 -0.327214 -8.77541 
-5.38703 -0.938595 -8.52749 
-5.64265 -0.187345 -8.86017 
-5.55476 -0.597561 -8.95775 
-5.48282 -0.77149 -8.41533 
-5.57409 0.109998 -8.1876 
-5.62504 -0.425393 -8.44121 
-5.34923 -0.981956 -8.23043 
-5.39209 -0.91571 -8.2247 
-5.53406 -0.722023 -8.48882 
-5.51274 -0.734929 -8.79139 
-5.60901 -0.079517 -8.29825 
-5.46588 -0.853217 -8.53359 
-5.44364 -0.902548 -8.74373 
-5.46358 -0.823545 -8.94994 
-5.62288 -0.01616 -8.81485 
-5.64269 -0.345703 -8.6348 
-5.4785 -0.781151 -8.18026 
-5.59243 0.0918 -8.88651 
-5.43742 -0.900245 -8.67051 
-5.46209 -0.821683 -8.49333 
-5.59669 0.134131 -8.79116 
-5.65177 -0.144443 -8.5802 
-5.4119 -0.919962 -8.3786 
-5.40191 -0.925424 -8.60493 
-5.62664 -0.444947 -8.48596 
-5.6023 -0.453126 -8.51422 
-5.46439 -0.788393 -8.15207 
-5.62365 0.001574 -8.40952 
-5.50514 -0.713502 -8.94455 
-5.61247 -0.435003 -8.27849 
-5.64185 -0.230847 -8.81054 
-5.69154 -0.18047 -8.72342 
-5.6063 0.042421 -8.35633 
-5.38402 -0.92426 -8.16228 
-5.5782 0.00998 -8.17074 
-5.55854 -0.664496 -8.61468 
-5.60029 -0.089646 -8.23425 
-5.60035 0.083837 -8.74139 
-5.62106 -0.152752 -8.46952 
-5.65515 -0.216461 -8.769 
-5.59696 -0.54145 -8.47585 
-5.63014 -0.388943 -8.42529 
-5.46357 -0.841062 -8.8501 
-5.63413 -0.064591 -8.79144 
-5.59409 0.063387 -8.83479 
-5.62815 -0.07077 -8.87832 
-5.63664 -0.407277 -8.7402 
-5.50921 -0.777594 -8.49699 
-5.55767 0.027758 -8.09007 
-5.62537 -0.289076 -8.44179 
-5.48994 -0.784159 -8.30495 
-5.59805 0.081726 -8.27768 
-5.56251 -0.560008 -8.33287 
-5.36857 -0.94689 -8.17118 
-5.3994 -0.960101 -8.72437 
-5.53394 -0.722381 -8.786 
-5.61914 -0.016449 -8.42525 
-5.36353 -0.985095 -8.67919 
-5.63999 -0.316373 -8.82298 
-5.60801 -0.552947 -8.7843 
-5.41785 -0.922625 -8.35982 
-5.62946 -0.134124 -8.90598 
-5.62821 -0.061741 -8.8683 
-5.61761 -0.297599 -8.18756 
-5.60865 -0.497418 -8.45057 
-5.62381 0.015206 -8.58474 
-5.43011 -0.845362 -8.19636 
-5.62793 -0.225201 -8.52325 
-5.60043 -0.461812 -8.26128 
-5.41893 -0.908015 -8.55216 
-5.63915 -0.152781 -8.84076 
-5.47187 -0.79533 -8.41512 
-5.56362 -0.65982 -8.56285 
-5.55062 -0.603638 -8.87097 
-5.51878 -0.681092 -8.31561 
-5.48115 -0.836768 -8.40759 
-5.50261 -0.797813 -8.52567 
-5.62381 -0.343578 -8.51838 
-5.5929 0.093401 -8.42507 
-5.39723 -0.913937 -8.24026 
-5.37565 -0.940456 -8.30929 
-5.46592 -0.825266 -8.25264 
-5.58569 -0.015994 -8.19752 
-5.58364 -0.498255 -8.93866 
-5.64746 -0.161985 -8.56753 
-5.47125 -0.778909 -8.96604 
-5.59397 0.119723 -8.48872 
-5.58717 -0.353281 -8.14723 
-5.41916 -0.887688 -8.83391 
-5.52796 -0.624557 -8.21554 
-5.62958 -0.360673 -8.2503 
-5.62748 0.001574 -8.53413 
-5.67844 -0.113801 -8.70457 
-5.53787 -0.64276 -8.93174 
-5.61841 -0.525024 -8.78573 
-5.48685 -0.783428 -8.26609 
-5.42751 -0.841731 -8.13394 
-5.3536 -0.977806 -8.23301 
-5.59556 -0.507325 -8.41448 
-5.53314 -0.715052 -8.43246 
-5.61556 -0.318065 -8.33532 
-5.58425 -0.59786 -8.80385 
-5.62324 -0.317802 -8.52482 
-5.57768 -0.473945 -8.83544 
-5.38167 -0.967685 -8.71386 
-5.5865 -0.126465 -8.10845 
-5.51004 -0.742639 -8.24276 
-5.57242 -0.461453 -8.14363 
-5.44613 -0.868768 -8.24404 
-5.58725 -0.563853 -8.79758 
-5.41949 -0.898611 -8.56176 
-5.57262 -0.642161 -8.68735 
-5.63521 -0.105297 -8.55296 
-5.53642 -0.588489 -8.17035 
-5.58746 -0.386811 -8.91008 
-5.62909 -0.199761 -8.79711 
-5.57688 -0.016614 -8.16111 
-5.62593 -0.327416 -8.38883 
-5.64627 -0.361999 -8.6598 
-5.60435 0.045037 -8.81365 
-5.47578 -0.792447 -8.29248 
-5.64172 -0.281887 -8.62181 
-5.67165 -0.146131 -8.69447 
-5.63747 -0.034342 -8.5596 
-5.50896 -0.67806 -8.17052 
-5.67518 -0.197802 -8.67143 
-5.56185 -0.550489 -8.30581 
-5.64537 -0.352306 -8.63341 
-5.62422 -0.339968 -8.92537 
-5.56926 0.053929 -8.15797 
-5.59397 0.082578 -8.25981 
-5.60703 -0.452563 -8.55742 
-5.63864 -0.28042 -8.56699 
-5.51986 -0.743654 -8.33385 
-5.53697 -0.706048 -8.38738 
-5.55509 -0.590603 -8.85012 
-5.63131 -0.00638 -8.57898 
-5.6122 -0.197482 -8.16821 
-5.62765 -0.108859 -8.27989 
-5.65585 -0.144346 -8.80455 
-5.6369 -0.225674 -8.65112 
-5.62224 -0.442268 -8.57768 
-5.59986 0.110032 -8.805 
-5.58765 -0.091329 -8.13669 
-5.59124 -0.016706 -8.26103 
-5.63784 -0.117277 -8.30682 
-5.34763 -0.987023 -8.23326 
-5.62295 -0.36788 -8.28741 
-5.48157 -0.779188 -8.73228 
-5.62465 0.001864 -8.36809 
-5.60208 -0.098364 -8.25191 
-5.61759 -0.41508 -8.38803 
-5.47563 -0.808425 -8.27073 
-5.51065 -0.770183 -8.6875 
-5.55909 -0.629338 -8.32842 
-5.61594 -0.55721 -8.68258 
-5.62863 -0.351065 -8.31606 
-5.5329 -0.714517 -8.77269 
-5.43422 -0.916535 -8.49113 
-5.47811 -0.827767 -8.37067 
-5.48204 -0.82425 -8.54292 
-5.56401 -0.552828 -8.29671 
-5.62279 -0.163803 -8.39608 
-5.63429 -0.042653 -8.63492 
-5.62951 -0.17912 -8.44214 
-5.65823 -0.067697 -8.73993 
-5.61945 -0.58856 -8.66072 
-5.57766 -0.026493 -8.15996 
-5.61044 0.020143 -8.79625 
-5.60699 0.120472 -8.67074 
-5.50551 -0.761402 -8.30055 
-5.62725 -0.370862 -8.25187 
-5.66127 -0.130057 -8.63696 
-5.54862 -0.690446 -8.67736 
-5.6336 -0.163536 -8.22521 
-5.43599 -0.850527 -8.96544 
-5.4843 -0.737614 -8.90681 
-5.62485 -0.017195 -8.76579 
-5.60548 -0.477261 -8.4159 
-5.43836 -0.841981 -8.47613 
-5.5963 -0.468742 -8.27417 
-5.58488 -0.417302 -8.8721 
-5.60716 0.003701 -8.90913 
-5.62248 -0.006894 -8.64087 
-5.57897 -0.425435 -8.16557 
-5.47833 -0.748666 -8.1903 
-5.40533 -0.940635 -8.47146 
-5.42686 -0.888455 -8.81575 
-5.6779 -0.106831 -8.71201 
-5.56289 -0.6245 -8.55336 
-5.46897 -0.785265 -8.84902 
-5.54759 -0.699248 -8.59433 
-5.34709 -0.98605 -8.13585 
-5.5978 -0.469891 -8.19774 
-5.63945 -0.331496 -8.63777 
-5.56548 0.019217 -8.09776 
-5.64322 -0.251746 -8.81265 
-5.60034 0.011219 -8.2881 
-5.3729 -0.968183 -8.55237 
-5.48034 -0.797269 -8.17368 
-5.64761 -0.125005 -8.57731 
-5.64397 -0.061787 -8.55205 
-5.63284 -0.058285 -8.5283 
-5.42078 -0.918962 -8.33414 
-5.60175 -0.532941 -8.68746 
-5.55444 -0.598198 -8.85868 
-5.60563 0.03063 -8.87992 
-5.59548 0.033993 -8.26615 
-5.60507 0.066597 -8.4503 
-5.43289 -0.888971 -8.61765 
-5.36523 -0.97767 -8.70421 
-5.67333 -0.198137 -8.6598 
-5.62862 -0.034778 -8.76774 
-5.59338 0.124717 -8.48056 
-5.428 -0.914694 -8.3892 
-5.47735 -0.773987 -8.37758 
-5.52216 -0.724305 -8.87505 
-5.60263 0.028965 -8.44291 
-5.63712 -0.153278 -8.18881 
-5.57674 -0.025247 -8.09918 
-5.63236 -0.123303 -8.26895 
-5.5884 -0.297056 -8.09721 
-5.51066 -0.752812 -8.84118 
-5.61186 -0.588966 -8.61349 
-5.63954 -0.478496 -8.67993 
-5.61178 -0.382912 -8.81559 
-5.45592 -0.870343 -8.4355 
-5.63886 -0.097588 -8.40598 
-5.58769 -0.043181 -8.18964 
-5.64137 -0.37054 -8.74986 
-5.49224 -0.761311 -8.7233 
-5.63383 -0.032239 -8.678 
-5.46212 -0.822843 -8.69646 
-5.62994 -0.244019 -8.32567 
-5.3597 -0.982631 -8.76324 
-5.59641 0.088226 -8.27291 
-5.60265 0.118838 -8.54269 
-5.64381 -0.200122 -8.44045 
-5.58719 0.091274 -8.89636 
-5.47067 -0.83409 -8.83187 
-5.45406 -0.879201 -8.50728 
-5.35486 -0.978484 -8.26166 
-5.58796 -0.457594 -8.9425 
-5.63782 -0.370693 -8.44236 
-5.58721 -0.591214 -8.80038 
-5.6257 0.001445 -8.45033 
-5.6423 -0.17416 -8.85869 
-5.53774 -0.579588 -8.1408 
-5.63421 -0.044249 -8.76606 
-5.65735 -0.210524 -8.65791 
-5.61545 -0.01885 -8.91336 
