ply
format ascii 1.0
comment VCGLIB generated
element vertex 1674
property float x
property float y
property float z
element face 0
property list uchar int vertex_indices
end_header
-5.36221 -0.974325 -8.4108 
-5.57437 -0.388138 -8.1296 
-5.62543 -0.273518 -8.23542 
-5.58993 -0.266998 -8.10065 
-5.58869 -0.063078 -8.14539 
-5.61864 -0.2806 -8.18269 
-5.64211 -0.258849 -8.67559 
-5.56813 0.016031 -8.09154 
-5.61062 -0.106127 -8.27551 
-5.62764 -0.290077 -8.55809 
-5.62904 -0.161352 -8.28913 
-5.64396 -0.173738 -8.56461 
-5.46789 -0.796483 -8.40966 
-5.6385 -0.386789 -8.73561 
-5.63566 -0.048832 -8.6018 
-5.63875 -0.138251 -8.27451 
-5.52695 -0.755519 -8.62887 
-5.64389 -0.072194 -8.58412 
-5.61101 -0.455191 -8.42519 
-5.60394 0.027315 -8.87786 
-5.63451 -0.167531 -8.304 
-5.60182 -0.537071 -8.69697 
-5.51329 -0.742945 -8.32329 
-5.54157 -0.582038 -8.19078 
-5.60607 0.064219 -8.45393 
-5.63809 -0.055831 -8.76424 
-5.63646 -0.108533 -8.38283 
-5.62862 -0.271295 -8.5521 
-5.39803 -0.960066 -8.75845 
-5.52026 -0.733156 -8.25199 
-5.64434 -0.314357 -8.66253 
-5.37402 -0.957477 -8.79467 
-5.54588 -0.55778 -8.13244 
-5.4367 -0.870069 -8.21832 
-5.60783 -0.513233 -8.70805 
-5.6316 -0.026607 -8.63641 
-5.59627 0.081917 -8.44738 
-5.64043 -0.08609 -8.5588 
-5.6071 0.038666 -8.3761 
-5.63486 -0.085638 -8.81905 
-5.55594 -0.648821 -8.86306 
-5.54341 -0.626284 -8.28762 
-5.48436 -0.772823 -8.77838 
-5.56458 -0.583414 -8.84126 
-5.6914 -0.167829 -8.74993 
-5.5206 -0.642896 -8.18347 
-5.48675 -0.732408 -8.94717 
-5.45545 -0.888118 -8.756 
-5.54025 -0.695 -8.39353 
-5.58102 -0.613338 -8.58382 
-5.63918 -0.138374 -8.23579 
-5.56425 0.094567 -8.14532 
-5.58787 0.110628 -8.35798 
-5.60583 -0.577718 -8.7734 
-5.64024 -0.364137 -8.57588 
-5.51542 -0.766745 -8.48367 
-5.51413 -0.741286 -8.8709 
-5.35999 -0.973936 -8.81744 
-5.60577 -0.534911 -8.70904 
-5.58986 0.037235 -8.89989 
-5.55142 0.079115 -8.08651 
-5.60979 0.027619 -8.41006 
-5.62893 -0.0479 -8.6105 
-5.45007 -0.860757 -8.24385 
-5.48652 -0.731852 -8.19823 
-5.62809 -0.326477 -8.25757 
-5.65447 -0.236405 -8.58547 
-5.63236 -0.34888 -8.3415 
-5.56973 -0.46209 -8.13842 
-5.61355 -0.377503 -8.2212 
-5.56723 -0.531817 -8.88304 
-5.64885 -0.229582 -8.58447 
-5.5987 -0.461405 -8.29602 
-5.55898 -0.545724 -8.24267 
-5.58999 -0.161299 -8.12057 
-5.51584 -0.737548 -8.89344 
-5.63259 -0.387429 -8.71219 
-5.48717 -0.830705 -8.57536 
-5.52813 -0.74007 -8.58282 
-5.64042 -0.228152 -8.89291 
-5.63991 -0.131147 -8.88327 
-5.46101 -0.825701 -8.21271 
-5.62756 -0.296421 -8.55315 
-5.62519 -0.033596 -8.49252 
-5.64008 -0.379952 -8.67547 
-5.44404 -0.884071 -8.32567 
-5.51451 -0.733618 -8.26693 
-5.66345 -0.223599 -8.68794 
-5.60348 0.124596 -8.70434 
-5.46835 -0.844408 -8.36316 
-5.60794 -0.522175 -8.79218 
-5.50136 -0.806388 -8.57029 
-5.6481 -0.228693 -8.59918 
-5.61646 0.026774 -8.48482 
-5.62132 -0.137191 -8.44001 
-5.6347 -0.101135 -8.8561 
-5.61657 -0.191541 -8.16944 
-5.46838 -0.813642 -8.39246 
-5.64533 -0.080063 -8.62008 
-5.62097 -0.014921 -8.6208 
-5.62126 -0.288178 -8.18314 
-5.49029 -0.726974 -8.94447 
-5.55458 -0.613283 -8.50853 
-5.63885 -0.115468 -8.84765 
-5.53799 -0.71676 -8.67758 
-5.51706 -0.747654 -8.38729 
-5.44987 -0.874996 -8.33197 
-5.60249 0.079153 -8.43993 
-5.47142 -0.79793 -8.42389 
-5.60121 -0.499391 -8.42518 
-5.59551 -0.523592 -8.81176 
-5.62649 -0.366313 -8.31703 
-5.62996 -0.536204 -8.62964 
-5.4451 -0.84532 -8.96585 
-5.57392 -0.629278 -8.73882 
-5.59056 -0.067881 -8.14932 
-5.46703 -0.808371 -8.16008 
-5.6465 -0.160843 -8.88483 
-5.37579 -0.97242 -8.73427 
-5.45974 -0.845678 -8.86265 
-5.62455 -0.138434 -8.51532 
-5.64168 -0.161007 -8.8628 
-5.60402 0.064976 -8.273 
-5.48064 -0.838379 -8.55322 
-5.61685 -0.24333 -8.17521 
-5.60149 0.101858 -8.72741 
-5.59517 -0.48485 -8.54499 
-5.60702 0.108017 -8.68112 
-5.68981 -0.190951 -8.74202 
-5.56531 -0.634758 -8.55203 
-5.63487 -0.129014 -8.37783 
-5.57817 -0.506957 -8.93079 
-5.57886 -0.4092 -8.1372 
-5.62448 -0.047824 -8.68165 
-5.48085 -0.777353 -8.62217 
-5.53083 -0.676628 -8.92483 
-5.61644 0.042509 -8.52323 
-5.57965 -0.5298 -8.91638 
-5.63206 -0.228923 -8.77264 
-5.47787 -0.78001 -8.40568 
-5.42001 -0.897334 -8.71263 
-5.59721 -0.484208 -8.82708 
-5.58012 -0.54496 -8.90818 
-5.44929 -0.889546 -8.63092 
-5.5901 0.080445 -8.89439 
-5.55303 -0.685272 -8.46318 
-5.59965 -0.625524 -8.6159 
-5.64369 -0.172646 -8.84582 
-5.38427 -0.944967 -8.49221 
-5.6266 -0.303835 -8.2508 
-5.58559 -0.394036 -8.90032 
-5.4451 -0.883864 -8.78086 
-5.43708 -0.869417 -8.60709 
-5.59437 -0.514403 -8.82504 
-5.62009 -0.26077 -8.32849 
-5.62029 -0.418389 -8.42438 
-5.38703 -0.928097 -8.30401 
-5.56786 0.014326 -8.09261 
-5.6031 -0.522671 -8.47573 
-5.58395 -0.45505 -8.87673 
-5.57221 -0.650149 -8.64397 
-5.59673 0.125062 -8.80355 
-5.44834 -0.890186 -8.50352 
-5.60809 -0.070936 -8.32731 
-5.481 -0.78588 -8.19865 
-5.60803 -0.438262 -8.30367 
-5.58467 -0.482983 -8.34118 
-5.59818 0.108702 -8.53283 
-5.60833 0.060865 -8.43376 
-5.5805 -0.597187 -8.43874 
-5.60135 -0.009659 -8.33434 
-5.42121 -0.921389 -8.62806 
-5.53429 -0.63535 -8.38654 
-5.50932 -0.686627 -8.20579 
-5.57594 -0.013744 -8.09685 
-5.60177 0.094347 -8.62162 
-5.61634 -0.287956 -8.36426 
-5.59802 -0.635719 -8.64135 
-5.5916 -0.483539 -8.20579 
-5.38457 -0.946395 -8.78237 
-5.57892 -0.447096 -8.16881 
-5.63924 -0.319809 -8.64426 
-5.6409 -0.070535 -8.54602 
-5.61704 -0.281573 -8.3646 
-5.59121 0.084395 -8.89872 
-5.50011 -0.804012 -8.55016 
-5.38537 -0.93119 -8.84019 
-5.59798 0.090365 -8.32288 
-5.63585 -0.401225 -8.68878 
-5.59791 -0.018572 -8.34024 
-5.607 0.002495 -8.90129 
-5.44371 -0.898877 -8.67474 
-5.62005 -0.477829 -8.58192 
-5.64777 -0.274664 -8.74213 
-5.50007 -0.706043 -8.20415 
-5.61467 -0.415943 -8.49682 
-5.61004 -0.055964 -8.41706 
-5.56807 -0.613989 -8.35056 
-5.56913 -0.446577 -8.10781 
-5.59488 -0.469845 -8.28187 
-5.62401 -0.011098 -8.76374 
-5.44278 -0.888864 -8.824 
-5.63753 -0.377975 -8.79429 
-5.61732 -0.431726 -8.42502 
-5.63915 -0.123152 -8.60548 
-5.5757 -0.571236 -8.39316 
-5.59238 0.093885 -8.88586 
-5.4968 -0.744967 -8.88482 
-5.63923 -0.198449 -8.61274 
-5.39525 -0.940813 -8.41814 
-5.50737 -0.689395 -8.96813 
-5.42039 -0.914445 -8.39207 
-5.6442 -0.220243 -8.90751 
-5.68513 -0.101423 -8.75676 
-5.63673 -0.482345 -8.66871 
-5.5905 0.080616 -8.25019 
-5.63617 -0.115454 -8.3903 
-5.46811 -0.785417 -8.15872 
-5.53189 -0.747699 -8.62156 
-5.6306 -0.072378 -8.88059 
-5.40651 -0.928802 -8.72509 
-5.6431 -0.270345 -8.75084 
-5.51961 -0.732661 -8.82563 
-5.53421 -0.657441 -8.44736 
-5.50317 -0.687093 -8.18303 
-5.64456 -0.312557 -8.66687 
-5.63385 -0.425154 -8.62104 
-5.50778 -0.759249 -8.25941 
-5.64744 -0.423882 -8.72746 
-5.51628 -0.764874 -8.55443 
-5.43529 -0.904404 -8.34079 
-5.5362 -0.650105 -8.37955 
-5.54213 -0.702248 -8.75784 
-5.58154 -0.508649 -8.50056 
-5.67035 -0.191451 -8.78012 
-5.6255 -0.371626 -8.31901 
-5.62841 -0.190749 -8.31338 
-5.63324 -0.394141 -8.66645 
-5.4995 -0.686437 -8.11444 
-5.6362 -0.033146 -8.55683 
-5.68302 -0.107239 -8.72749 
-5.55119 -0.56103 -8.25955 
-5.40567 -0.897863 -8.21365 
-5.63329 -0.130601 -8.22771 
-5.54532 -0.677327 -8.43902 
-5.63561 -0.246544 -8.86884 
-5.61632 0.026773 -8.77966 
-5.5858 -0.492524 -8.83249 
-5.65449 -0.130355 -8.62915 
-5.6405 -0.243916 -8.79409 
-5.63154 -0.363286 -8.42503 
-5.63398 -0.145748 -8.26634 
-5.62631 -0.55141 -8.65855 
-5.52657 -0.723637 -8.87022 
-5.55327 -0.681463 -8.5694 
-5.4095 -0.917226 -8.70369 
-5.61661 0.049327 -8.51527 
-5.63439 -0.167755 -8.82245 
-5.48086 -0.80258 -8.18182 
-5.56366 -0.621269 -8.89268 
-5.63411 -0.326898 -8.28779 
-5.59077 0.072605 -8.89988 
-5.61634 -0.251366 -8.20634 
-5.63281 -0.063002 -8.53049 
-5.52776 -0.733778 -8.78026 
-5.67654 -0.102253 -8.67477 
-5.48842 -0.776497 -8.34116 
-5.62594 -0.244171 -8.25982 
-5.41137 -0.918659 -8.25957 
-5.57185 -0.507211 -8.88638 
-5.61603 -0.312016 -8.32551 
-5.59202 0.078893 -8.29578 
-5.54395 -0.561341 -8.13643 
-5.45245 -0.891913 -8.64293 
-5.64537 -0.462178 -8.73398 
-5.57847 -0.552413 -8.91585 
-5.59594 0.087067 -8.41693 
-5.63195 -0.356572 -8.40253 
-5.68214 -0.211388 -8.7357 
-5.54189 -0.689782 -8.8497 
-5.62357 -0.516384 -8.65034 
-5.61109 0.072402 -8.65169 
-5.57865 -0.515242 -8.93176 
-5.6448 -0.378873 -8.65143 
-5.58338 -0.0488 -8.0845 
-5.6006 -0.319353 -8.16187 
-5.64245 -0.21047 -8.42809 
-5.38947 -0.950915 -8.59804 
-5.6323 -0.191763 -8.29712 
-5.62342 -0.333797 -8.50008 
-5.55273 -0.665951 -8.83955 
-5.62957 -0.148156 -8.54457 
-5.61053 -0.514856 -8.78984 
-5.61599 0.041987 -8.76509 
-5.62847 -0.24776 -8.34574 
-5.54231 -0.687662 -8.65234 
-5.6194 0.034005 -8.54533 
-5.40041 -0.893411 -8.20298 
-5.43548 -0.830437 -8.11602 
-5.48377 -0.727167 -8.12924 
-5.59559 0.024887 -8.83512 
-5.59079 0.101485 -8.25637 
-5.57267 0.065101 -8.22057 
-5.4507 -0.875248 -8.57078 
-5.54909 -0.665364 -8.86267 
-5.61355 -0.010245 -8.88016 
-5.61851 -0.002644 -8.43832 
-5.45368 -0.832955 -8.95395 
-5.46779 -0.809361 -8.77225 
-5.59186 -0.257343 -8.13966 
-5.35773 -0.986068 -8.35668 
-5.59964 -0.529751 -8.80453 
-5.64498 -0.273766 -8.62879 
-5.60223 -0.529545 -8.71165 
-5.60213 -0.116512 -8.1838 
-5.50013 -0.688739 -8.15939 
-5.60391 0.065438 -8.67438 
-5.64648 -0.340793 -8.47788 
-5.61139 -0.070754 -8.37329 
-5.56906 0.019189 -8.10875 
-5.51911 -0.718121 -8.81805 
-5.58307 -0.570814 -8.43871 
-5.60944 0.057319 -8.63606 
-5.40634 -0.906384 -8.4552 
-5.60497 -0.456649 -8.39536 
-5.61848 -0.492923 -8.6138 
-5.62947 -0.179301 -8.91216 
-5.63622 -0.363517 -8.3833 
-5.64206 -0.238078 -8.80962 
-5.60675 0.080479 -8.583 
-5.58811 -0.447448 -8.83566 
-5.4722 -0.792437 -8.7125 
-5.41187 -0.950069 -8.7413 
-5.54111 -0.574527 -8.14557 
-5.64174 -0.231002 -8.39291 
-5.37482 -0.965835 -8.40161 
-5.4961 -0.756027 -8.73452 
-5.40667 -0.898659 -8.86373 
-5.61868 -0.114244 -8.24235 
-5.56879 0.031523 -8.16557 
-5.56985 -0.656513 -8.76536 
-5.62483 -0.177513 -8.29086 
-5.46422 -0.837002 -8.16822 
-5.60768 -0.085124 -8.28771 
-5.61626 -0.426181 -8.38741 
-5.62757 -0.299105 -8.51614 
-5.52497 -0.636502 -8.19836 
-5.61145 -0.507835 -8.74887 
-5.57469 0.056476 -8.21899 
-5.46063 -0.821351 -8.34636 
-5.46099 -0.772598 -8.11133 
-5.63734 -0.305725 -8.61219 
-5.45754 -0.887233 -8.71008 
-5.60635 0.043158 -8.27313 
-5.60708 0.041177 -8.65999 
-5.61042 0.011447 -8.81052 
-5.39326 -0.936676 -8.6439 
-5.57372 -0.408984 -8.11559 
-5.51915 -0.711757 -8.94619 
-5.37252 -0.94266 -8.8624 
-5.57348 0.026344 -8.18951 
-5.38332 -0.944118 -8.50806 
-5.51524 -0.690638 -8.25421 
-5.38952 -0.936758 -8.26465 
-5.391 -0.943486 -8.59105 
-5.69129 -0.184451 -8.719 
-5.62845 -0.2653 -8.55792 
-5.54446 -0.611306 -8.29562 
-5.46039 -0.831596 -8.93968 
-5.43502 -0.912271 -8.62874 
-5.63976 -0.154034 -8.8333 
-5.62753 -0.048257 -8.8402 
-5.5749 -0.418612 -8.15544 
-5.53426 -0.657674 -8.41773 
-5.48963 -0.718227 -8.13719 
-5.59012 -0.553221 -8.47045 
-5.61338 -0.020972 -8.42523 
-5.37493 -0.971875 -8.71909 
-5.64061 -0.19862 -8.40936 
-5.41296 -0.868138 -8.93106 
-5.4465 -0.829609 -8.31178 
-5.6306 -0.34897 -8.25065 
-5.58965 -0.20633 -8.08696 
-5.62443 -0.138903 -8.42428 
-5.60561 0.025048 -8.79578 
-5.60778 -0.447654 -8.33622 
-5.64684 -0.175035 -8.80186 
-5.57931 -0.401245 -8.92339 
-5.59492 -0.04862 -8.30432 
-5.5303 -0.732224 -8.38668 
-5.58444 -0.379512 -8.13947 
-5.53797 -0.720544 -8.65911 
-5.58377 0.027505 -8.23607 
-5.59709 -0.011272 -8.32482 
-5.59833 0.082391 -8.34407 
-5.63132 -0.092881 -8.42501 
-5.55509 -0.558272 -8.22084 
-5.64008 -0.130848 -8.40269 
-5.63319 -0.137056 -8.90184 
-5.55856 -0.638957 -8.31929 
-5.67594 -0.155473 -8.7276 
-5.618 -0.387041 -8.87112 
-5.63934 -0.371294 -8.44755 
-5.64082 -0.242746 -8.908 
-5.55967 -0.630146 -8.33485 
-5.62791 -0.154808 -8.40343 
-5.44326 -0.830038 -8.47014 
-5.40528 -0.949135 -8.77119 
-5.67073 -0.131215 -8.79593 
-5.62592 -0.018227 -8.51599 
-5.57756 -0.60527 -8.57102 
-5.45954 -0.802528 -8.35058 
-5.61703 -0.43147 -8.29707 
-5.62443 0.004179 -8.59881 
-5.55986 -0.477225 -8.12271 
-5.47404 -0.787943 -8.45433 
-5.62877 -0.225399 -8.52104 
-5.46176 -0.821931 -8.77896 
-5.63005 -0.021404 -8.82113 
-5.61548 -0.002481 -8.3503 
-5.53428 -0.695025 -8.34942 
-5.63985 -0.245651 -8.66035 
-5.61443 -0.565131 -8.61572 
-5.62976 -0.265791 -8.55156 
-5.43956 -0.897908 -8.78549 
-5.68649 -0.205228 -8.71036 
-5.53609 -0.659031 -8.92309 
-5.5833 -0.534976 -8.52136 
-5.46615 -0.867719 -8.37254 
-5.47657 -0.777023 -8.69172 
-5.61303 -0.009233 -8.7757 
-5.56798 -0.596893 -8.36737 
-5.6418 -0.265561 -8.78652 
-5.611 -0.431699 -8.351 
-5.66985 -0.138394 -8.68947 
-5.36328 -0.982181 -8.56897 
-5.48202 -0.725735 -8.10758 
-5.51152 -0.738606 -8.89215 
-5.6124 0.048141 -8.50012 
-5.62066 -0.586089 -8.62529 
-5.51856 -0.717557 -8.22801 
-5.63815 -0.165738 -8.36938 
-5.39104 -0.951038 -8.55365 
-5.41452 -0.905464 -8.6347 
-5.61664 0.0406 -8.6142 
-5.57963 -0.514793 -8.89268 
-5.47292 -0.791623 -8.37946 
-5.56817 -0.589108 -8.35779 
-5.63438 -0.122538 -8.90233 
-5.63166 -0.222404 -8.78761 
-5.61652 -0.513929 -8.59719 
-5.5589 -0.506069 -8.1387 
-5.63541 -0.252796 -8.37173 
-5.4891 -0.737128 -8.90746 
-5.46421 -0.850916 -8.7798 
-5.52056 -0.750986 -8.65092 
-5.40158 -0.922401 -8.70138 
-5.43521 -0.900137 -8.50058 
-5.59124 -0.088531 -8.18282 
-5.38784 -0.918823 -8.20195 
-5.60994 -0.01034 -8.90114 
-5.55874 0.080156 -8.13724 
-5.58073 -0.599365 -8.45516 
-5.39738 -0.949385 -8.77705 
-5.38054 -0.948049 -8.30943 
-5.46809 -0.781405 -8.31076 
-5.64496 -0.051821 -8.69601 
-5.39118 -0.94408 -8.44011 
-5.57835 -0.491479 -8.86364 
-5.56713 0.014533 -8.10518 
-5.62069 -0.00076 -8.4724 
-5.52566 -0.711588 -8.2443 
-5.67531 -0.131019 -8.67543 
-5.63802 -0.384135 -8.72033 
-5.6336 -0.192447 -8.19151 
-5.67274 -0.175598 -8.65154 
-5.58027 -0.644295 -8.62846 
-5.53592 -0.59082 -8.17582 
-5.63281 -0.017596 -8.59062 
-5.40438 -0.928225 -8.56836 
-5.5873 -0.334048 -8.13593 
-5.65402 -0.432495 -8.66626 
-5.47724 -0.742007 -8.1125 
-5.64701 -0.364265 -8.66715 
-5.43687 -0.907819 -8.65251 
-5.61944 -0.477944 -8.70432 
-5.619 -0.333825 -8.32787 
-5.60221 0.117673 -8.69753 
-5.58657 -0.597362 -8.77302 
-5.60421 0.071597 -8.58576 
-5.64792 -0.408602 -8.66624 
-5.5431 -0.643773 -8.45461 
-5.44184 -0.872945 -8.35199 
-5.55544 -0.507215 -8.11429 
-5.61898 -0.071576 -8.50771 
-5.56286 -0.551179 -8.30291 
-5.6435 -0.449429 -8.74279 
-5.59438 0.072633 -8.8408 
-5.56246 -0.498366 -8.1523 
-5.61001 -0.009567 -8.86285 
-5.57859 -0.628437 -8.79377 
-5.57412 -0.643876 -8.57705 
-5.66431 -0.209977 -8.76805 
-5.54764 -0.680698 -8.49247 
-5.54016 -0.574502 -8.16116 
-5.57481 -0.523574 -8.50283 
-5.45393 -0.817631 -8.47508 
-5.38476 -0.969369 -8.74328 
-5.51316 -0.702794 -8.94049 
-5.58865 -0.252693 -8.12231 
-5.60943 0.049244 -8.29811 
-5.59541 -0.478215 -8.83143 
-5.57925 -0.536746 -8.83142 
-5.58285 -0.418183 -8.87665 
-5.60171 -0.266619 -8.16133 
-5.6702 -0.152766 -8.71914 
-5.61189 -0.039657 -8.45535 
-5.61856 -0.17638 -8.1722 
-5.58668 -0.416594 -8.88562 
-5.58897 -0.009987 -8.22724 
-5.62956 -0.409342 -8.36852 
-5.56076 -0.611263 -8.5264 
-5.55647 -0.687255 -8.74213 
-5.62806 -0.417269 -8.77359 
-5.57742 -0.363264 -8.12349 
-5.63323 -0.146518 -8.41055 
-5.56079 -0.676844 -8.72728 
-5.52411 -0.730188 -8.87096 
-5.46188 -0.877769 -8.6597 
-5.53468 -0.658067 -8.37171 
-5.59571 0.080784 -8.455 
-5.6854 -0.168534 -8.71896 
-5.44624 -0.866332 -8.64106 
-5.58549 -0.453563 -8.83991 
-5.61695 -0.335481 -8.35542 
-5.52638 -0.688295 -8.90857 
-5.48593 -0.774072 -8.1943 
-5.60866 -0.06359 -8.35682 
-5.54192 -0.710254 -8.54519 
-5.39106 -0.936325 -8.67432 
-5.60312 -0.094836 -8.25104 
-5.52772 -0.732577 -8.44028 
-5.48862 -0.762931 -8.72706 
-5.63064 -0.296064 -8.30964 
-5.59426 -0.581922 -8.59882 
-5.60604 -0.55654 -8.78452 
-5.40927 -0.893119 -8.21964 
-5.63045 -0.199469 -8.54459 
-5.6399 -0.288752 -8.56833 
-5.47176 -0.769917 -8.89238 
-5.5417 -0.630787 -8.38098 
-5.64251 -0.326026 -8.76596 
-5.63915 -0.115754 -8.61444 
-5.58393 -0.454378 -8.86382 
-5.38238 -0.965432 -8.56804 
-5.51818 -0.747018 -8.5467 
-5.62182 -0.350134 -8.92035 
-5.47314 -0.852441 -8.39525 
-5.64116 -0.273301 -8.70383 
-5.40594 -0.920318 -8.80194 
-5.59054 -0.487332 -8.26637 
-5.6284 -0.119518 -8.55077 
-5.56042 -0.547381 -8.31577 
-5.63599 -0.211556 -8.24324 
-5.465 -0.815206 -8.92297 
-5.61352 0.023674 -8.4254 
-5.62428 -0.453826 -8.81066 
-5.34662 -0.975535 -8.84225 
-5.55698 -0.658557 -8.7056 
-5.47293 -0.823141 -8.58482 
-5.62038 -0.470006 -8.78353 
-5.62959 -0.280111 -8.54538 
-5.58288 -0.049229 -8.16082 
-5.58755 -0.01837 -8.22011 
-5.66806 -0.196781 -8.77765 
-5.49681 -0.762905 -8.23615 
-5.61164 0.02807 -8.38995 
-5.58209 -0.469814 -8.88576 
-5.60241 0.064176 -8.5913 
-5.68399 -0.211738 -8.71932 
-5.54924 -0.597686 -8.93089 
-5.63273 -0.026144 -8.65944 
-5.47168 -0.841276 -8.72834 
-5.65721 -0.209886 -8.77571 
-5.53034 -0.726921 -8.52631 
-5.58779 -0.116546 -8.10057 
-5.63046 -0.130391 -8.20557 
-5.40023 -0.900451 -8.21164 
-5.55904 -0.62713 -8.902 
-5.57777 -0.63478 -8.56814 
-5.53352 -0.715168 -8.30508 
-5.51881 -0.665785 -8.96114 
-5.4504 -0.891603 -8.51536 
-5.6384 -0.137727 -8.28834 
-5.44983 -0.883496 -8.6317 
-5.49565 -0.785403 -8.28172 
-5.63185 -0.415724 -8.8157 
-5.63201 -0.010338 -8.71206 
-5.54483 -0.635188 -8.43217 
-5.37817 -0.952045 -8.4784 
-5.45503 -0.865269 -8.28221 
-5.39769 -0.966007 -8.74267 
-5.59058 -0.500783 -8.37831 
-5.39572 -0.934975 -8.59502 
-5.55406 -0.55781 -8.25054 
-5.58557 -0.490049 -8.23646 
-5.46436 -0.853474 -8.50909 
-5.43034 -0.856203 -8.46902 
-5.64094 -0.244299 -8.84095 
-5.60629 0.056644 -8.41843 
-5.62434 -0.11593 -8.23578 
-5.55124 -0.537825 -8.15855 
-5.6236 -0.492906 -8.74287 
-5.61504 0.048986 -8.53096 
-5.62308 0.026583 -8.58383 
-5.59247 0.102217 -8.42365 
-5.58663 -0.370723 -8.16063 
-5.55551 -0.4995 -8.12327 
-5.53142 -0.635001 -8.25883 
-5.55314 -0.646313 -8.51911 
-5.63753 -0.025792 -8.58389 
-5.39765 -0.912967 -8.18323 
-5.65441 -0.426358 -8.66208 
-5.43025 -0.840283 -8.16106 
-5.42512 -0.866567 -8.94928 
-5.60448 -0.469588 -8.55213 
-5.64791 -0.273719 -8.7577 
-5.63339 -0.380074 -8.37939 
-5.59503 0.104367 -8.72587 
-5.60287 -0.439558 -8.22793 
-5.46985 -0.795312 -8.37996 
-5.61083 -0.040105 -8.43187 
-5.41949 -0.892595 -8.69671 
-5.5983 0.085805 -8.53629 
-5.60386 -0.454999 -8.33432 
-5.5994 -0.488582 -8.23571 
-5.61345 -0.415204 -8.51708 
-5.63104 -0.032648 -8.79576 
-5.50483 -0.762102 -8.44149 
-5.63203 -0.214424 -8.51519 
-5.60712 0.058387 -8.40218 
-5.44354 -0.896739 -8.72793 
-5.59027 -0.195986 -8.12764 
-5.63086 -0.364727 -8.36983 
-5.61343 0.010399 -8.48136 
-5.57988 0.034364 -8.19893 
-5.63208 -0.363893 -8.29695 
-5.52201 -0.679248 -8.34048 
-5.61797 0.027285 -8.35673 
-5.60628 0.071709 -8.73381 
-5.52617 -0.619909 -8.16788 
-5.6192 -0.304231 -8.90855 
-5.5379 -0.694791 -8.89161 
-5.62659 -0.212447 -8.27491 
-5.64118 -0.102269 -8.88756 
-5.64763 -0.221092 -8.42512 
-5.57886 -0.619498 -8.82541 
-5.64814 -0.266916 -8.60044 
-5.60418 0.12366 -8.69691 
-5.59098 -0.557255 -8.47846 
-5.57577 -0.633575 -8.58264 
-5.58104 -0.613067 -8.59112 
-5.40031 -0.928899 -8.44016 
-5.66493 -0.147719 -8.64241 
-5.6266 -0.372936 -8.29565 
-5.41322 -0.903746 -8.23785 
-5.62676 -0.448037 -8.5837 
-5.59125 -0.094996 -8.1532 
-5.42075 -0.898503 -8.67557 
-5.4038 -0.934658 -8.46222 
-5.63643 -0.32546 -8.30331 
-5.41457 -0.862663 -8.13065 
-5.53272 -0.73861 -8.56512 
-5.42466 -0.87217 -8.44463 
-5.60095 0.06349 -8.71281 
-5.61147 -0.492815 -8.47593 
-5.48024 -0.770482 -8.82593 
-5.53906 -0.700709 -8.8601 
-5.65811 -0.202303 -8.64963 
-5.64092 -0.401776 -8.6283 
-5.61262 -0.447563 -8.4241 
-5.63096 -0.23774 -8.54499 
-5.60382 0.028331 -8.8111 
-5.62638 -0.48478 -8.71661 
-5.6546 -0.168679 -8.58386 
-5.637 -0.254166 -8.75243 
-5.45044 -0.846406 -8.32695 
-5.61827 -0.115211 -8.47033 
-5.47183 -0.815209 -8.40196 
-5.64213 -0.348478 -8.486 
-5.57102 -0.629743 -8.86409 
-5.51338 -0.771721 -8.59929 
-5.6326 -0.296767 -8.47715 
-5.55721 -0.620931 -8.52284 
-5.39596 -0.933628 -8.80862 
-5.45823 -0.828634 -8.68968 
-5.59547 0.124434 -8.49292 
-5.55639 -0.601869 -8.84785 
-5.52171 -0.634618 -8.1842 
-5.60199 -0.093553 -8.24454 
-5.54274 -0.702881 -8.68833 
-5.60007 0.09432 -8.60556 
-5.47921 -0.784575 -8.18309 
-5.4696 -0.781978 -8.3611 
-5.46192 -0.802731 -8.36534 
-5.47151 -0.858035 -8.51751 
-5.62391 -0.176401 -8.46991 
-5.42752 -0.904169 -8.28155 
-5.50426 -0.764801 -8.71382 
-5.63471 -0.394427 -8.65048 
-5.47057 -0.866528 -8.73549 
-5.52035 -0.739457 -8.57721 
-5.60834 -0.469013 -8.3424 
-5.60105 -0.51475 -8.80248 
-5.56349 -0.612249 -8.56095 
-5.57559 -0.403663 -8.10647 
-5.60505 0.111881 -8.71336 
-5.64335 -0.375305 -8.66422 
-5.52828 -0.670325 -8.40799 
-5.60871 -0.503842 -8.80777 
-5.61767 -0.40876 -8.24389 
-5.5983 0.087429 -8.75573 
-5.58319 -0.06286 -8.13782 
-5.53279 -0.717947 -8.42524 
-5.38217 -0.970078 -8.72139 
-5.60372 0.026877 -8.86252 
-5.45446 -0.862197 -8.85713 
-5.36691 -0.971569 -8.43243 
-5.63086 -0.153216 -8.2895 
-5.56012 -0.618474 -8.87851 
-5.5605 -0.570881 -8.84661 
-5.63427 -0.076619 -8.63585 
-5.4629 -0.847749 -8.29505 
-5.42859 -0.89071 -8.61423 
-5.43139 -0.908487 -8.35758 
-5.44863 -0.889945 -8.53415 
-5.59277 -0.490448 -8.24973 
-5.56121 -0.571239 -8.91398 
-5.51364 -0.763572 -8.4268 
-5.58392 -0.454127 -8.90827 
-5.40413 -0.919961 -8.81808 
-5.54089 -0.703042 -8.52292 
-5.58812 -0.416782 -8.90092 
-5.64404 -0.086468 -8.63915 
-5.62275 -0.13952 -8.44818 
-5.60749 0.108932 -8.70475 
-5.60353 0.041494 -8.44821 
-5.60175 0.102079 -8.79519 
-5.63357 -0.018286 -8.74216 
-5.60302 0.050352 -8.4703 
-5.36953 -0.958767 -8.31202 
-5.60977 -0.167911 -8.1641 
-5.40704 -0.899192 -8.22867 
-5.50445 -0.696272 -8.20599 
-5.61939 -0.213951 -8.19079 
-5.6373 -0.448676 -8.77815 
-5.63455 -0.25323 -8.39508 
-5.59166 -0.421284 -8.89152 
-5.41319 -0.950281 -8.75729 
-5.58884 0.018565 -8.84827 
-5.41427 -0.913713 -8.60497 
-5.54002 -0.634956 -8.93969 
-5.55962 -0.484662 -8.13017 
-5.65911 -0.17009 -8.63142 
-5.62751 -0.401259 -8.72349 
-5.55765 -0.627374 -8.54574 
-5.61629 0.042074 -8.68943 
-5.49595 -0.778795 -8.31069 
-5.64218 -0.148818 -8.81088 
-5.61706 -0.527762 -8.76658 
-5.42121 -0.922604 -8.53325 
-5.58814 -0.304879 -8.1291 
-5.62434 -0.115878 -8.50784 
-5.59797 -0.055332 -8.24256 
-5.59574 0.050017 -8.26535 
-5.38674 -0.915384 -8.87555 
-5.59856 -0.438399 -8.1938 
-5.64029 -0.289718 -8.6596 
-5.52234 -0.740983 -8.45431 
-5.60854 -0.086132 -8.27419 
-5.62979 -0.153221 -8.55478 
-5.64712 -0.304235 -8.69724 
-5.57418 -0.544768 -8.50621 
-5.6178 0.01852 -8.77282 
-5.58789 -0.499194 -8.50039 
-5.53521 -0.589921 -8.13833 
-5.51096 -0.755672 -8.32712 
-5.58914 -0.260252 -8.09227 
-5.61225 -0.614873 -8.64393 
-5.62513 -0.356828 -8.49605 
-5.69046 -0.167601 -8.73472 
-5.41841 -0.883759 -8.96112 
-5.6186 -0.319271 -8.22672 
-5.52074 -0.742474 -8.38742 
-5.56114 -0.677428 -8.74237 
-5.54591 -0.639406 -8.34663 
-5.58927 -0.342474 -8.14492 
-5.58663 -0.515104 -8.91627 
-5.61885 0.02072 -8.65693 
-5.43201 -0.870622 -8.49092 
-5.51584 -0.734433 -8.28195 
-5.45698 -0.87496 -8.33348 
-5.58352 0.144795 -8.86794 
-5.62837 -0.1837 -8.55205 
-5.4572 -0.861432 -8.34317 
-5.62363 -0.551022 -8.67478 
-5.58556 -0.514399 -8.52954 
-5.43792 -0.885614 -8.31017 
-5.58636 -0.116078 -8.10762 
-5.58032 -0.401679 -8.93884 
-5.62686 -0.191338 -8.45558 
-5.68523 -0.206694 -8.72654 
-5.54258 -0.606003 -8.28747 
-5.46849 -0.825102 -8.36386 
-5.62047 -0.324574 -8.37995 
-5.5351 -0.582474 -8.15997 
-5.53975 -0.709611 -8.63888 
-5.59165 -0.312543 -8.13229 
-5.68516 -0.212 -8.70612 
-5.57088 -0.4244 -8.10137 
-5.61733 -0.387743 -8.23492 
-5.62277 -0.44145 -8.81882 
-5.59979 -0.470557 -8.26509 
-5.52805 -0.643283 -8.2283 
-5.54747 -0.692017 -8.82876 
-5.54987 -0.680951 -8.79407 
-5.6007 0.057716 -8.39372 
-5.61846 -0.018182 -8.84573 
-5.46415 -0.860195 -8.37738 
-5.594 0.101494 -8.85468 
-5.57859 -0.530471 -8.94556 
-5.56734 -0.615135 -8.38919 
-5.62381 -0.129175 -8.19525 
-5.36326 -0.982361 -8.74884 
-5.59095 0.093037 -8.37297 
-5.60951 0.064906 -8.63586 
-5.48053 -0.836619 -8.39243 
-5.61613 -0.611497 -8.68825 
-5.457 -0.822934 -8.46228 
-5.6407 -0.371497 -8.77933 
-5.60404 0.034777 -8.43326 
-5.48165 -0.779059 -8.60697 
-5.64203 -0.429809 -8.63834 
-5.62057 -0.574121 -8.74255 
-5.57333 -0.545005 -8.89285 
-5.61716 -0.461764 -8.46251 
-5.61733 0.003975 -8.81808 
-5.37015 -0.969158 -8.56901 
-5.59032 -0.591971 -8.59705 
-5.64934 -0.147125 -8.5745 
-5.67719 -0.100824 -8.68905 
-5.58212 -0.461547 -8.86183 
-5.45477 -0.845394 -8.34611 
-5.62219 -0.09634 -8.31132 
-5.62418 -0.004134 -8.79505 
-5.60074 -0.483926 -8.55284 
-5.45647 -0.867211 -8.43689 
-5.63442 -0.101234 -8.8236 
-5.51296 -0.665014 -8.18345 
-5.45669 -0.844724 -8.90094 
-5.60739 0.056005 -8.28905 
-5.47528 -0.771003 -8.87816 
-5.5802 -0.424625 -8.16653 
-5.59851 -0.551459 -8.81603 
-5.62011 -0.040971 -8.88638 
-5.59368 -0.632711 -8.69617 
-5.56624 0.103556 -8.19701 
-5.66727 -0.127271 -8.70398 
-5.68231 -0.115532 -8.73437 
-5.45411 -0.840108 -8.62881 
-5.64031 -0.250645 -8.81828 
-5.64712 -0.43281 -8.72615 
-5.59708 0.058274 -8.37169 
-5.60264 0.117926 -8.76439 
-5.608 -0.459786 -8.55405 
-5.62301 -0.566493 -8.73455 
-5.57119 -0.536966 -8.2962 
-5.38117 -0.928223 -8.19808 
-5.37581 -0.966016 -8.40954 
-5.63215 -0.388536 -8.66716 
-5.39781 -0.96702 -8.75747 
-5.60029 -0.001671 -8.30434 
-5.60973 0.07941 -8.65898 
-5.41703 -0.867059 -8.91983 
-5.38667 -0.950396 -8.57616 
-5.5646 0.034749 -8.17386 
-5.58186 -0.477802 -8.84829 
-5.42721 -0.852843 -8.16924 
-5.39419 -0.915944 -8.24505 
-5.63274 -0.025855 -8.69684 
-5.60875 -0.375571 -8.90818 
-5.57599 -0.633962 -8.74279 
-5.38739 -0.941688 -8.66783 
-5.5298 -0.718153 -8.59941 
-5.659 -0.095266 -8.64764 
-5.65182 -0.145877 -8.5898 
-5.61256 -0.294432 -8.32479 
-5.62261 -0.169132 -8.91528 
-5.61109 -0.03261 -8.44746 
-5.62372 -0.582056 -8.65937 
-5.59501 -0.017515 -8.31177 
-5.36093 -0.973641 -8.37132 
-5.63251 -0.537328 -8.63405 
-5.64322 -0.320583 -8.57487 
-5.40906 -0.931717 -8.73085 
-5.6346 -0.230954 -8.43372 
-5.45866 -0.846017 -8.88549 
-5.50957 -0.679046 -8.14449 
-5.6029 -0.442198 -8.30285 
-5.62016 -0.27464 -8.37858 
-5.54233 -0.69584 -8.84816 
-5.6238 -0.111567 -8.25935 
-5.58669 -0.527924 -8.91395 
-5.60991 -0.47748 -8.4917 
-5.59397 -0.130411 -8.15998 
-5.59469 0.086491 -8.52343 
-5.63662 -0.160866 -8.33753 
-5.38002 -0.947416 -8.29643 
-5.5659 -0.597088 -8.56027 
-5.63569 -0.398438 -8.65781 
-5.38298 -0.965928 -8.52275 
-5.63033 -0.025136 -8.537 
-5.68311 -0.103523 -8.77044 
-5.43964 -0.909431 -8.75994 
-5.6092 -0.544821 -8.68933 
-5.44453 -0.861598 -8.57908 
-5.62722 -0.378583 -8.42466 
-5.59944 0.117117 -8.63093 
-5.57116 0.019907 -8.13855 
-5.64373 -0.181597 -8.85234 
-5.47309 -0.800669 -8.61408 
-5.60905 -0.273845 -8.16874 
-5.61185 -0.064388 -8.44602 
-5.56286 -0.589329 -8.47652 
-5.39583 -0.898677 -8.9081 
-5.63932 -0.094632 -8.8407 
-5.60903 0.04164 -8.59828 
-5.45084 -0.830493 -8.32711 
-5.36713 -0.969467 -8.43725 
-5.55698 -0.642686 -8.53004 
-5.56196 -0.476575 -8.11441 
-5.51534 -0.67385 -8.20943 
-5.64052 -0.206244 -8.36463 
-5.40655 -0.906226 -8.44819 
-5.61603 -0.583064 -8.61586 
-5.61224 0.008887 -8.35506 
-5.59877 0.077223 -8.43285 
-5.60588 -0.225546 -8.16468 
-5.598 0.116362 -8.62124 
-5.48362 -0.762379 -8.79813 
-5.54807 -0.686614 -8.77921 
-5.60856 0.046945 -8.31081 
-5.61057 -0.063515 -8.3868 
-5.60674 0.054364 -8.82946 
-5.52315 -0.716666 -8.83458 
-5.58688 -0.567637 -8.47713 
-5.59884 -0.324999 -8.16183 
-5.53595 -0.710862 -8.53023 
-5.4134 -0.921516 -8.29651 
-5.51147 -0.672163 -8.14554 
-5.45112 -0.853556 -8.33435 
-5.5111 -0.759817 -8.26516 
-5.64608 -0.066261 -8.67008 
-5.51226 -0.742492 -8.79904 
-5.67845 -0.115537 -8.78094 
-5.62594 0.012327 -8.56103 
-5.63845 -0.109104 -8.90141 
-5.51341 -0.762286 -8.37201 
-5.49695 -0.773206 -8.67318 
-5.59596 -0.477042 -8.37093 
-5.56041 -0.521838 -8.20661 
-5.60081 -0.468869 -8.40266 
-5.46412 -0.808455 -8.287 
-5.59771 -0.57032 -8.60384 
-5.53785 -0.653513 -8.91396 
-5.6108 -0.416605 -8.56052 
-5.61369 -0.385224 -8.22895 
-5.63084 -0.06238 -8.65196 
-5.57146 -0.604459 -8.40182 
-5.6242 -0.110405 -8.22372 
-5.54137 -0.672589 -8.44013 
-5.51427 -0.77037 -8.55106 
-5.63964 -0.24315 -8.92329 
-5.3893 -0.942197 -8.41091 
-5.60049 -0.034968 -8.33495 
-5.63246 -0.164108 -8.90712 
-5.53287 -0.708809 -8.3943 
-5.63611 -0.235732 -8.37786 
-5.61128 0.020095 -8.63626 
-5.64404 -0.122851 -8.34631 
-5.64976 -0.168532 -8.57735 
-5.6099 -0.407245 -8.83063 
-5.53659 -0.629567 -8.40267 
-5.62129 -0.257328 -8.33259 
-5.49688 -0.772286 -8.45593 
-5.47218 -0.80566 -8.73508 
-5.64678 -0.091242 -8.61408 
-5.57241 -0.604715 -8.37189 
-5.43219 -0.874249 -8.61051 
-5.52687 -0.702493 -8.31867 
-5.61432 0.017382 -8.44743 
-5.58327 -0.026909 -8.16754 
-5.5911 -0.152662 -8.14482 
-5.52967 -0.72706 -8.48903 
-5.58791 -0.631652 -8.70246 
-5.60308 0.124155 -8.73506 
-5.60194 0.042056 -8.83334 
-5.64832 -0.0689 -8.6711 
-5.62152 -0.446553 -8.47253 
-5.53769 -0.628764 -8.94748 
-5.68741 -0.145972 -8.75656 
-5.46045 -0.787294 -8.30377 
-5.37696 -0.950905 -8.46318 
-5.57933 -0.469612 -8.17515 
-5.52613 -0.732717 -8.86042 
-5.60718 0.048342 -8.47897 
-5.52 -0.735623 -8.85593 
-5.55742 -0.665195 -8.68123 
-5.63575 -0.229958 -8.3265 
-5.54303 -0.703071 -8.53835 
-5.62679 -0.267659 -8.90719 
-5.4218 -0.917692 -8.64804 
-5.63686 -0.049711 -8.53144 
-5.6167 -0.446626 -8.49259 
-5.57481 -0.410509 -8.15994 
-5.57614 -0.631895 -8.71797 
-5.58458 -0.455896 -8.9008 
-5.55668 -0.574714 -8.31226 
-5.6096 -0.409726 -8.53868 
-5.62392 -0.011039 -8.50131 
-5.62875 -0.461266 -8.60452 
-5.61687 -0.002801 -8.62072 
-5.47036 -0.866245 -8.57016 
-5.6415 -0.296616 -8.65135 
-5.59433 0.102336 -8.87099 
-5.64783 -0.237362 -8.71992 
-5.632 -0.010851 -8.72733 
-5.48408 -0.774098 -8.78911 
-5.61874 -0.289282 -8.18123 
-5.62927 -0.009501 -8.46729 
-5.65155 -0.200171 -8.59914 
-5.45651 -0.834595 -8.48788 
-5.56567 -0.560871 -8.93818 
-5.53962 -0.702718 -8.36681 
-5.63544 -0.464671 -8.75539 
-5.62827 -0.192001 -8.54634 
-5.6048 -0.435052 -8.38927 
-5.43196 -0.916458 -8.63346 
-5.62244 -0.49105 -8.75942 
-5.56278 -0.544493 -8.32123 
-5.51521 -0.659437 -8.2045 
-5.46142 -0.854574 -8.7747 
-5.36678 -0.972176 -8.46225 
-5.43525 -0.904575 -8.36476 
-5.63113 -0.063752 -8.79422 
-5.4595 -0.838375 -8.25879 
-5.59063 -0.629888 -8.64117 
-5.4737 -0.843748 -8.42482 
-5.62883 -0.213695 -8.53298 
-5.53937 -0.611906 -8.27352 
-5.59364 0.101579 -8.30486 
-5.66204 -0.073005 -8.68377 
-5.50727 -0.76665 -8.53347 
-5.63855 -0.184886 -8.44074 
-5.59891 0.123889 -8.64307 
-5.63636 -0.236543 -8.35719 
-5.621 -0.327404 -8.53372 
-5.48074 -0.77138 -8.7277 
-5.59698 -0.120092 -8.18063 
-5.52199 -0.714004 -8.82129 
-5.63797 -0.272702 -8.30331 
-5.64021 -0.199516 -8.79441 
-5.57331 -0.641845 -8.7418 
-5.50763 -0.693714 -8.22617 
-5.58478 -0.304145 -8.11488 
-5.63602 -0.163845 -8.8257 
-5.46316 -0.862534 -8.30869 
-5.57604 0.010262 -8.14779 
-5.63401 -0.273529 -8.84127 
-5.63823 -0.139384 -8.89891 
-5.64919 -0.28184 -8.65019 
-5.4515 -0.853173 -8.88678 
-5.57989 -0.567285 -8.39452 
-5.64413 -0.258432 -8.78742 
-5.38337 -0.949306 -8.47708 
-5.63884 -0.183576 -8.30398 
-5.62673 -0.02484 -8.50745 
-5.42843 -0.920655 -8.78693 
-5.56807 -0.599098 -8.35861 
-5.5836 -0.510279 -8.89614 
-5.52232 -0.720497 -8.28666 
-5.61016 -0.515677 -8.67382 
-5.60546 -0.464338 -8.40812 
-5.61302 -0.100815 -8.33632 
-5.55386 -0.619635 -8.50136 
-5.62552 -0.151368 -8.18044 
-5.6338 -0.070963 -8.81796 
-5.5137 -0.778993 -8.50763 
-5.37495 -0.970202 -8.48542 
-5.67662 -0.11484 -8.71268 
-5.57565 -0.608703 -8.8071 
-5.62993 -0.042034 -8.82439 
-5.58808 -0.273815 -8.12241 
-5.52788 -0.741367 -8.47034 
-5.59705 0.074611 -8.41105 
-5.62063 -0.072129 -8.51622 
-5.57833 -0.50713 -8.18354 
-5.38935 -0.934953 -8.61433 
-5.35737 -0.979544 -8.42339 
-5.44992 -0.86574 -8.3624 
-5.62087 -0.196043 -8.91968 
-5.63253 -0.183785 -8.31954 
-5.61797 -0.423997 -8.49266 
-5.58956 0.051267 -8.8874 
-5.60569 -0.009578 -8.86113 
-5.63246 -0.251668 -8.71266 
-5.48529 -0.819642 -8.53872 
-5.5015 -0.79085 -8.54147 
-5.63055 -0.235506 -8.22967 
-5.63013 -0.371752 -8.29774 
-5.48128 -0.76295 -8.81697 
-5.5575 -0.597851 -8.52229 
-5.37998 -0.964902 -8.65087 
-5.6458 -0.153315 -8.61503 
-5.61916 -0.357637 -8.53775 
-5.64571 -0.116656 -8.89375 
-5.62875 -0.252803 -8.34467 
-5.53405 -0.619682 -8.25113 
-5.43442 -0.919532 -8.64155 
-5.60299 -0.46281 -8.32684 
-5.5702 0.011544 -8.09082 
-5.60228 -0.507392 -8.49211 
-5.36768 -0.973384 -8.58323 
-5.5662 -0.637725 -8.83849 
-5.57585 0.086637 -8.21578 
-5.64455 -0.29572 -8.77985 
-5.5803 -0.032995 -8.13787 
-5.53682 -0.687636 -8.40046 
-5.64086 -0.304522 -8.64438 
-5.6176 -0.432138 -8.27575 
-5.59387 0.101934 -8.51607 
-5.65102 -0.084234 -8.64965 
-5.45751 -0.793039 -8.12246 
-5.62474 -0.327495 -8.55368 
-5.36504 -0.985899 -8.71517 
-5.51977 -0.635526 -8.15419 
-5.63162 -0.124249 -8.25091 
-5.52996 -0.710315 -8.41607 
-5.5976 -0.032791 -8.31805 
-5.5243 -0.682052 -8.34996 
-5.58916 -0.197432 -8.10199 
-5.60268 0.057431 -8.46272 
-5.46231 -0.773309 -8.13153 
-5.49676 -0.741589 -8.88704 
-5.60844 -0.417349 -8.51022 
-5.61823 0.019956 -8.40237 
-5.62554 -0.16017 -8.31934 
-5.60606 0.068711 -8.57165 
-5.63304 -0.109295 -8.3187 
-5.62721 -0.273268 -8.26138 
-5.48283 -0.78781 -8.23512 
-5.57522 -0.434414 -8.90927 
-5.60239 -0.379152 -8.90009 
-5.59587 -0.468687 -8.2748 
-5.60982 0.03689 -8.66763 
-5.63421 -0.04033 -8.63781 
-5.64583 -0.223748 -8.81974 
-5.63235 -0.086143 -8.40897 
-5.46241 -0.824388 -8.94053 
-5.60159 -0.14149 -8.16402 
-5.44043 -0.889746 -8.28837 
-5.63889 -0.222957 -8.91751 
-5.62028 -0.374102 -8.32787 
-5.57071 -0.558861 -8.94668 
-5.63712 -0.304413 -8.87744 
-5.6129 -0.4555 -8.57271 
-5.45702 -0.82109 -8.58791 
-5.44187 -0.837484 -8.46822 
-5.60493 -0.566025 -8.61093 
-5.58076 -0.605199 -8.7724 
-5.53782 -0.661759 -8.45491 
-5.45753 -0.876423 -8.81815 
-5.59257 0.094696 -8.2969 
-5.6435 -0.334553 -8.65156 
-5.51653 -0.76343 -8.56111 
-5.55267 -0.561456 -8.27132 
-5.59776 0.021422 -8.82528 
-5.60852 -0.387015 -8.19856 
-5.63282 -0.258569 -8.90836 
-5.60256 -0.018361 -8.36436 
-5.51011 -0.678849 -8.13166 
-5.61629 0.039829 -8.67712 
-5.40651 -0.920682 -8.58405 
-5.5737 -0.569432 -8.82858 
-5.58554 0.018251 -8.21303 
-5.6423 -0.265748 -8.66832 
-5.63582 -0.092963 -8.90362 
-5.46118 -0.832183 -8.85821 
-5.63207 -0.250407 -8.40978 
-5.6269 -0.010178 -8.60016 
-5.41961 -0.932855 -8.78444 
-5.59445 -0.499053 -8.51521 
-5.67705 -0.108437 -8.67465 
-5.60033 0.062851 -8.29648 
-5.64592 -0.453738 -8.69323 
-5.62124 0.015575 -8.34327 
-5.60972 -0.612649 -8.62098 
-5.63231 -0.228747 -8.78045 
-5.62489 -0.363511 -8.88564 
-5.38934 -0.920111 -8.15327 
-5.60928 -0.077812 -8.29718 
-5.55862 0.035472 -8.07687 
-5.42209 -0.854725 -8.93646 
-5.48095 -0.770837 -8.38022 
-5.56741 0.063295 -8.19064 
-5.54531 -0.555819 -8.15662 
-5.59313 -0.544691 -8.44049 
-5.54775 -0.642129 -8.45385 
-5.46998 -0.812508 -8.23877 
-5.63168 -0.357143 -8.32627 
-5.36634 -0.973812 -8.66645 
-5.53994 -0.711318 -8.62122 
-5.60979 -0.364115 -8.20594 
-5.63488 -0.379779 -8.46409 
-5.45105 -0.876071 -8.5045 
-5.5964 0.072426 -8.75063 
-5.45275 -0.854526 -8.90247 
-5.61898 -0.169085 -8.17253 
-5.4978 -0.695449 -8.15309 
-5.59829 -0.430366 -8.20626 
-5.57092 -0.401556 -8.12193 
-5.59361 0.004823 -8.27397 
-5.61243 -0.492234 -8.48717 
-5.58482 -0.416604 -8.87846 
-5.63813 -0.334296 -8.40935 
-5.60393 -0.627921 -8.64433 
-5.624 -0.055247 -8.51647 
-5.37378 -0.970867 -8.5863 
-5.62435 -0.326189 -8.91694 
-5.64038 -0.214228 -8.82473 
-5.57506 -0.635653 -8.57468 
-5.40414 -0.928564 -8.58429 
-5.43432 -0.85969 -8.46256 
-5.60829 -0.37895 -8.21479 
-5.50402 -0.760067 -8.72523 
-5.43763 -0.897001 -8.29702 
-5.61947 -0.419319 -8.33273 
-5.58362 -0.572954 -8.44931 
-5.49985 -0.786887 -8.53896 
-5.64031 -0.11583 -8.41054 
-5.52983 -0.724777 -8.56744 
-5.59639 0.109441 -8.48339 
-5.65124 -0.357101 -8.61196 
-5.55942 -0.568542 -8.32637 
-5.53343 -0.717394 -8.62831 
-5.47352 -0.846191 -8.72732 
-5.44372 -0.891618 -8.71144 
-5.61029 0.020057 -8.43198 
-5.65108 -0.193563 -8.79069 
-5.4813 -0.770464 -8.83976 
-5.54555 -0.587179 -8.20989 
-5.63888 -0.393057 -8.76509 
-5.36473 -0.973864 -8.78679 
-5.63271 -0.364134 -8.49293 
-5.62411 -0.409092 -8.36472 
-5.46326 -0.819421 -8.65987 
-5.5907 0.057679 -8.8622 
-5.5838 -0.424519 -8.93773 
-5.59519 -0.041214 -8.30369 
-5.41423 -0.928697 -8.62208 
-5.62181 0.031668 -8.69782 
-5.62633 0.004935 -8.5378 
-5.38335 -0.945057 -8.39446 
-5.43641 -0.883404 -8.29728 
-5.66518 -0.146775 -8.79839 
-5.6052 0.048518 -8.28581 
-5.39152 -0.943988 -8.56127 
-5.56734 0.049124 -8.16709 
-5.60551 -0.328141 -8.17515 
-5.61993 -0.112407 -8.21277 
-5.60088 -0.552021 -8.58435 
-5.64399 -0.363888 -8.73434 
-5.55116 -0.651702 -8.86281 
-5.53787 -0.576316 -8.11789 
-5.50928 -0.686954 -8.95257 
-5.45693 -0.873349 -8.80216 
-5.43012 -0.855856 -8.90682 
-5.62838 -0.356085 -8.8402 
-5.46578 -0.815552 -8.8709 
-5.63465 -0.244671 -8.73517 
-5.53453 -0.65812 -8.39449 
-5.61562 0.03379 -8.32808 
-5.37251 -0.969892 -8.43914 
-5.63113 -0.145278 -8.3037 
-5.55655 -0.686357 -8.76499 
-5.58631 -0.522017 -8.54492 
-5.49509 -0.782251 -8.25163 
-5.62242 -0.010257 -8.63227 
-5.54463 -0.683087 -8.8636 
-5.6876 -0.167838 -8.68811 
-5.57778 -0.620072 -8.56983 
-5.64126 -0.129125 -8.34229 
-5.62405 0.004236 -8.38711 
-5.52115 -0.756406 -8.59746 
-5.61605 0.034419 -8.50054 
-5.51229 -0.7765 -8.55355 
-5.35472 -0.986539 -8.27453 
-5.58772 -0.479333 -8.34774 
-5.534 -0.740031 -8.62056 
-5.64609 -0.371388 -8.65098 
-5.56534 -0.454467 -8.12331 
-5.59924 0.056985 -8.31019 
-5.57748 -0.011588 -8.15105 
-5.48897 -0.751705 -8.86766 
-5.49512 -0.709905 -8.1434 
-5.44888 -0.845147 -8.3199 
-5.61735 -0.002493 -8.37933 
-5.5726 -0.560966 -8.51547 
-5.60012 -0.461705 -8.52929 
-5.59671 0.110218 -8.40964 
-5.53986 -0.695033 -8.77179 
-5.59486 0.101407 -8.31847 
-5.64221 -0.320376 -8.66405 
-5.4699 -0.86246 -8.75244 
-5.53275 -0.689434 -8.36462 
-5.5204 -0.755367 -8.4544 
-5.62051 -0.346359 -8.55555 
-5.46985 -0.846436 -8.7504 
-5.53168 -0.650396 -8.34957 
-5.60475 0.060854 -8.50766 
-5.62703 -0.274288 -8.52396 
-5.63158 -0.177317 -8.53169 
-5.61295 -0.59882 -8.61758 
-5.6454 -0.110917 -8.80807 
-5.63856 -0.146232 -8.23681 
-5.63326 -0.053455 -8.68797 
-5.63281 -0.04085 -8.52326 
-5.3749 -0.941383 -8.17627 
-5.59359 0.094549 -8.86282 
-5.64789 -0.439358 -8.65199 
-5.41788 -0.927607 -8.62936 
-5.62853 -0.477326 -8.71608 
-5.46594 -0.808181 -8.3948 
-5.42222 -0.930929 -8.75606 
-5.62936 -0.173889 -8.2737 
-5.52082 -0.743785 -8.36505 
-5.63751 -0.361717 -8.83248 
-5.38194 -0.949596 -8.66704 
-5.63198 -0.214022 -8.27206 
-5.59796 -0.630948 -8.62575 
-5.59518 0.094773 -8.41777 
-5.38256 -0.928433 -8.90867 
-5.36315 -0.953664 -8.85493 
-5.59642 -0.032833 -8.3049 
-5.63626 -0.095632 -8.85211 
-5.55849 -0.659197 -8.71784 
-5.46781 -0.771385 -8.14623 
-5.37409 -0.97064 -8.70581 
-5.59968 0.080019 -8.40066 
-5.52357 -0.753722 -8.69628 
-5.57871 -0.621545 -8.73525 
-5.37908 -0.938939 -8.24247 
-5.63636 -0.246625 -8.77232 
-5.59019 -0.492812 -8.93744 
-5.63613 -0.071827 -8.65305 
-5.3852 -0.937267 -8.26715 
-5.52493 -0.612987 -8.10229 
-5.61004 0.064077 -8.50848 
-5.54897 -0.633591 -8.36432 
-5.61594 -0.236781 -8.17621 
-5.55667 -0.618933 -8.90797 
-5.54147 -0.70099 -8.58353 
-5.55789 -0.515107 -8.14526 
-5.46266 -0.814706 -8.94538 
-5.62447 -0.116608 -8.49302 
-5.61587 -0.588575 -8.61564 
-5.68126 -0.192968 -8.76604 
-5.56997 -0.624977 -8.34723 
-5.55584 0.063588 -8.10769 
-5.42019 -0.853095 -8.15292 
-5.50465 -0.788132 -8.51203 
-5.59595 0.085935 -8.81028 
-5.59702 -0.386446 -8.17465 
-5.6099 -0.387109 -8.87742 
-5.60984 0.00378 -8.35656 
-5.50203 -0.800451 -8.54617 
-5.58062 -0.544292 -8.54524 
-5.62778 -0.191084 -8.52958 
-5.53666 -0.71754 -8.65921 
-5.58419 -0.603571 -8.77778 
-5.57978 -0.611932 -8.84018 
-5.4704 -0.816118 -8.28598 
-5.63156 -0.153416 -8.26611 
-5.41308 -0.928844 -8.73356 
-5.53844 -0.729666 -8.6189 
-5.63115 -0.42451 -8.57778 
-5.61573 -0.05682 -8.4625 
-5.5737 -0.505856 -8.94554 
-5.43987 -0.861072 -8.6321 
-5.5949 0.011785 -8.27374 
-5.6201 -0.123372 -8.43957 
-5.5952 -0.236082 -8.15957 
-5.64249 -0.151844 -8.37253 
-5.63371 -0.28958 -8.27327 
-5.53729 -0.719234 -8.67902 
-5.45914 -0.837863 -8.91572 
-5.57978 0.102021 -8.22055 
-5.59264 -0.336015 -8.93488 
-5.57154 -0.507332 -8.25897 
-5.60604 -0.086698 -8.26102 
-5.54308 -0.643675 -8.48588 
-5.49639 -0.70228 -8.11521 
-5.64365 -0.334066 -8.75742 
-5.4116 -0.932335 -8.79807 
-5.61595 -0.2819 -8.20544 
-5.59831 -0.427617 -8.18826 
-5.61742 -0.273763 -8.36495 
-5.56203 -0.67151 -8.7719 
-5.64437 -0.184837 -8.87679 
-5.47432 -0.785468 -8.77238 
-5.58817 -0.236496 -8.11503 
-5.46248 -0.819894 -8.92377 
-5.59137 -0.515568 -8.38381 
-5.4155 -0.88422 -8.20531 
-5.63287 -0.190485 -8.23566 
-5.5673 -0.651752 -8.66231 
-5.38284 -0.965258 -8.71157 
-5.59069 -0.565014 -8.81274 
-5.60575 -0.516224 -8.47573 
-5.59771 0.102945 -8.52808 
-5.48813 -0.761519 -8.81003 
-5.52867 -0.682467 -8.90683 
-5.53974 -0.696687 -8.80205 
-5.63155 -0.341596 -8.24402 
-5.63082 -0.395629 -8.40943 
-5.60279 -0.00253 -8.8705 
-5.63506 -0.190132 -8.40842 
-5.57805 -0.529336 -8.50838 
-5.63978 -0.153763 -8.8406 
-5.63976 -0.408878 -8.65159 
-5.62143 -0.440824 -8.82354 
-5.60942 0.028466 -8.40249 
-5.58165 -0.039763 -8.15998 
-5.56582 0.048028 -8.15338 
-5.60263 -0.401615 -8.19841 
-5.55956 -0.56145 -8.28902 
-5.59631 -0.477415 -8.51536 
-5.63277 -0.055678 -8.8176 
-5.50324 -0.770246 -8.36473 
-5.49306 -0.760367 -8.8039 
-5.62722 -0.212967 -8.30346 
-5.6386 -0.334661 -8.78706 
-5.58782 -0.153549 -8.0927 
-5.62381 -0.560356 -8.72692 
-5.42265 -0.878147 -8.84357 
-5.56636 -0.514824 -8.22815 
-5.68063 -0.168729 -8.78159 
-5.62174 -0.512804 -8.78534 
-5.63076 -0.484033 -8.63513 
-5.64517 -0.175296 -8.90125 
-5.36791 -0.966794 -8.29663 
-5.56431 -0.658046 -8.54446 
-5.59556 -0.024865 -8.30268 
-5.64462 -0.330214 -8.43441 
-5.52331 -0.703352 -8.24323 
-5.53196 -0.70936 -8.4388 
-5.60159 0.011096 -8.84866 
-5.6061 0.117028 -8.71984 
-5.63727 -0.063576 -8.77958 
-5.41603 -0.886119 -8.8515 
-5.60158 -0.529937 -8.68189 
-5.62473 -0.54448 -8.67402 
-5.60145 -0.634298 -8.63638 
-5.61046 -0.596468 -8.68164 
-5.38704 -0.94095 -8.29792 
-5.46045 -0.830198 -8.7354 
-5.4046 -0.919791 -8.69755 
-5.35388 -0.989109 -8.26465 
-5.60875 -0.484942 -8.49146 
-5.61647 -0.416611 -8.38731 
-5.69106 -0.175571 -8.72044 
-5.56068 -0.669056 -8.51943 
-5.61561 -0.574605 -8.61678 
-5.60961 0.05778 -8.49972 
-5.63616 -0.239671 -8.77676 
-5.54411 -0.688527 -8.86355 
-5.54319 -0.702535 -8.65221 
-5.48921 -0.793669 -8.50718 
-5.58025 -0.544285 -8.91646 
-5.54767 -0.680033 -8.71329 
-5.50862 -0.755862 -8.57054 
-5.68377 -0.145896 -8.74298 
-5.5356 -0.650209 -8.37191 
-5.65181 -0.222516 -8.5756 
-5.54885 -0.682368 -8.4409 
-5.67158 -0.086779 -8.75766 
-5.5792 -0.497417 -8.94588 
-5.63396 -0.288589 -8.26629 
-5.60907 0.026754 -8.78706 
-5.5512 -0.649098 -8.51537 
-5.63887 -0.475826 -8.7408 
-5.42213 -0.869757 -8.86304 
-5.59558 -0.513691 -8.49397 
-5.62054 -0.448673 -8.45511 
-5.61737 -0.108737 -8.22114 
-5.5556 -0.559725 -8.27473 
-5.63162 -0.500746 -8.62835 
-5.5799 -0.048042 -8.07896 
-5.61731 0.03505 -8.61412 
-5.59457 -0.092984 -8.19079 
-5.62517 -0.024897 -8.80955 
-5.48461 -0.719906 -8.10707 
-5.52081 -0.750304 -8.57645 
-5.60253 -0.620988 -8.61375 
-5.48913 -0.740754 -8.95389 
-5.58994 -0.258702 -8.12186 
-5.59816 0.073203 -8.81752 
-5.42637 -0.897201 -8.43161 
-5.62567 -0.274684 -8.91639 
-5.45036 -0.854308 -8.65374 
-5.37572 -0.966978 -8.75773 
-5.59304 0.093915 -8.26004 
-5.5106 -0.770097 -8.45494 
-5.41641 -0.906539 -8.5821 
-5.46955 -0.839592 -8.54225 
-5.53922 -0.61213 -8.25303 
-5.42848 -0.853721 -8.93858 
-5.61314 -0.615109 -8.65937 
-5.51036 -0.761255 -8.31836 
-5.41991 -0.917435 -8.54449 
-5.61556 -0.258718 -8.19701 
-5.64399 -0.189238 -8.34351 
-5.60286 -0.462502 -8.54409 
-5.65179 -0.131631 -8.57806 
-5.58904 -0.334354 -8.15833 
-5.38223 -0.970813 -8.74795 
-5.622 -0.566813 -8.70497 
-5.44167 -0.89961 -8.35056 
-5.55156 -0.605012 -8.3164 
-5.49104 -0.816643 -8.52152 
-5.614 -0.438161 -8.40092 
-5.3694 -0.96981 -8.48444 
-5.64281 -0.438642 -8.63676 
-5.56468 -0.514529 -8.17542 
-5.62787 -0.365448 -8.24324 
-5.35903 -0.982265 -8.32765 
-5.4773 -0.786678 -8.70515 
-5.52817 -0.635116 -8.23566 
-5.62561 -0.296116 -8.447 
-5.60364 0.110256 -8.57619 
-5.56058 -0.631423 -8.32462 
-5.53462 -0.65799 -8.9532 
-5.58666 -0.552163 -8.37228 
-5.52982 -0.705627 -8.36283 
-5.61213 -0.433693 -8.37747 
-5.56092 -0.543883 -8.25202 
-5.6251 -0.153456 -8.90993 
-5.46834 -0.778652 -8.86348 
-5.53334 -0.605162 -8.12971 
-5.54781 -0.597973 -8.9238 
-5.57822 0.048479 -8.22852 
-5.62374 -0.553325 -8.63474 
-5.5384 -0.653986 -8.40097 
-5.58527 -0.499399 -8.83145 
-5.62325 -0.510067 -8.78453 
-5.53714 -0.718607 -8.61082 
-5.49126 -0.771623 -8.22874 
-5.60319 -0.499881 -8.43187 
-5.56487 0.102272 -8.13111 
-5.6353 -0.311502 -8.87663 
-5.53025 -0.706053 -8.8367 
-5.36637 -0.959717 -8.19103 
-5.61906 -0.454193 -8.4396 
-5.37977 -0.96431 -8.77595 
-5.64376 -0.092955 -8.63017 
-5.39738 -0.943341 -8.71895 
-5.54137 -0.590214 -8.25089 
-5.52719 -0.725558 -8.77174 
-5.63731 -0.482477 -8.68809 
-5.62367 0.005674 -8.41743 
-5.6115 -0.537169 -8.61218 
-5.61925 -0.358042 -8.91068 
-5.354 -0.975402 -8.24422 
-5.557 0.086464 -8.11575 
-5.42355 -0.848186 -8.14453 
-5.44603 -0.894232 -8.72705 
-5.62983 -0.061379 -8.5253 
-5.63556 -0.227359 -8.23744 
-5.5924 -0.498847 -8.52754 
-5.60961 -0.484409 -8.57723 
-5.60106 0.017017 -8.90849 
-5.49026 -0.717804 -8.16013 
-5.48175 -0.783332 -8.60308 
-5.68622 -0.199544 -8.70533 
-5.56061 0.061135 -8.12022 
-5.37158 -0.932051 -8.11651 
-5.59653 -0.574666 -8.5983 
-5.45557 -0.89657 -8.67578 
-5.6733 -0.158821 -8.71807 
-5.59535 -0.380583 -8.90113 
-5.62192 -0.393076 -8.84128 
-5.67198 -0.215984 -8.75229 
-5.58028 -0.365176 -8.09596 
-5.62703 -0.18437 -8.28984 
-5.54919 -0.686704 -8.82455 
-5.58032 -0.582376 -8.43969 
-5.6345 -0.147531 -8.2746 
-5.60716 -0.443698 -8.26571 
-5.59648 -0.100702 -8.22119 
-5.51881 -0.740428 -8.86283 
-5.61987 -0.009088 -8.8329 
-5.63381 -0.470423 -8.65237 
-5.62158 -0.01074 -8.40943 
-5.62561 -0.175299 -8.3856 
-5.61451 -0.303398 -8.1741 
-5.47238 -0.792071 -8.49292 
-5.59054 -0.389459 -8.88914 
-5.56883 -0.611391 -8.39499 
-5.52214 -0.721221 -8.79873 
-5.62476 -0.161008 -8.4927 
-5.58869 -0.461008 -8.20911 
-5.63458 -0.335475 -8.30333 
-5.61165 -0.328368 -8.93198 
-5.37854 -0.95977 -8.67384 
-5.6377 -0.056006 -8.68327 
-5.63112 -0.206891 -8.22866 
-5.5984 -0.499958 -8.41078 
-5.5404 -0.642686 -8.40996 
-5.68218 -0.180752 -8.6627 
-5.56355 -0.590583 -8.53162 
-5.38831 -0.92677 -8.85451 
-5.63836 -0.446034 -8.71283 
-5.55389 -0.542563 -8.18308 
-5.59645 -0.527837 -8.70103 
-5.66241 -0.10034 -8.78023 
-5.43639 -0.898325 -8.31133 
-5.62103 -0.080859 -8.50799 
-5.4498 -0.837299 -8.45014 
-5.45656 -0.8526 -8.87901 
-5.53175 -0.739155 -8.52096 
-5.57869 -0.618919 -8.74921 
-5.57698 -0.610271 -8.44 
-5.46778 -0.808084 -8.93125 
-5.45742 -0.823667 -8.96176 
-5.4189 -0.8817 -8.85523 
-5.46645 -0.839463 -8.27952 
-5.64016 -0.417335 -8.5987 
-5.59847 -0.057031 -8.29314 
-5.54677 -0.699663 -8.58053 
-5.63298 -0.281555 -8.2894 
-5.43618 -0.838132 -8.1455 
-5.60291 0.116795 -8.71314 
-5.649 -0.139133 -8.80632 
-5.41518 -0.914074 -8.6371 
-5.48025 -0.76997 -8.86263 
-5.52549 -0.747217 -8.64371 
-5.63479 -0.440039 -8.59059 
-5.51458 -0.747652 -8.80186 
-5.64576 -0.417725 -8.70339 
-5.61613 0.012065 -8.77206 
-5.60226 0.049395 -8.26626 
-5.64023 -0.191543 -8.61411 
-5.5912 -0.074601 -8.18165 
-5.6442 -0.317859 -8.7642 
-5.61645 -0.325618 -8.1979 
-5.45762 -0.845248 -8.66665 
-5.56486 -0.560035 -8.89316 
-5.62633 -0.183857 -8.49971 
-5.62242 -0.122961 -8.48561 
-5.61231 -0.01792 -8.88508 
-5.37393 -0.935529 -8.12363 
-5.46752 -0.838684 -8.74249 
-5.63185 -0.092906 -8.41288 
-5.62855 -0.003061 -8.71804 
